ply
format ascii 1.0
comment Created by Open3D
element vertex 2236
property double x
property double y
property double z
end_header
-68.325 78.975 1.125
-68.325 79.125 1.125
-68.325 79.275 1.725
-68.325 79.425 1.725
-68.325 79.425 1.875
-68.325 79.425 2.475
-68.325 79.425 2.775
-68.325 79.575 2.325
-68.325 79.875 2.925
-68.325 80.325 5.475
-68.325 80.775 0.525
-68.325 81.075 2.925
-68.325 82.275 0.675
-68.325 82.425 0.675
-68.325 82.425 2.625
-68.325 82.575 0.525
-68.325 82.725 0.075
-68.325 82.725 0.675
-68.325 82.875 -0.075
-68.325 83.025 -0.225
-68.325 83.025 1.275
-68.325 83.025 1.875
-68.325 83.175 0.825
-68.325 83.175 2.925
-68.325 83.325 -0.225
-68.325 83.625 -0.225
-68.325 83.625 -2.175
-68.325 83.625 2.775
-68.325 83.775 -0.525
-68.325 83.775 3.075
-68.325 83.925 -0.525
-68.325 83.925 2.175
-68.325 83.925 3.225
-68.325 84.075 1.275
-68.325 84.075 1.875
-68.325 84.075 2.025
-68.325 84.075 2.175
-68.325 84.525 2.325
-68.325 84.825 2.175
-68.325 85.125 1.425
-68.325 85.125 1.575
-68.325 85.125 1.875
-68.325 85.125 2.025
-68.325 85.425 1.575
-68.325 85.575 0.375
-68.325 85.575 1.425
-68.325 85.575 1.575
-68.325 85.575 1.875
-68.325 86.025 0.975
-68.325 86.025 1.125
-68.325 86.475 3.525
-68.325 86.625 3.675
-68.475 104.025 1.275
-68.475 104.025 4.425
-68.475 104.475 0.525
-68.475 104.925 2.475
-68.475 105.375 2.325
-68.475 105.675 0.825
-68.475 105.675 1.575
-68.475 105.975 2.175
-68.475 106.125 1.725
-68.475 106.125 2.025
-68.475 106.275 1.875
-68.475 106.275 2.025
-68.475 106.275 2.325
-68.475 106.275 3.375
-68.475 106.425 0.975
-68.475 106.425 1.875
-68.475 106.575 1.425
-68.475 106.575 2.025
-68.475 106.725 1.575
-68.475 106.875 2.325
-68.475 107.025 1.575
-68.475 107.175 2.175
-68.475 107.175 2.775
-68.475 107.175 3.075
-68.475 107.325 2.325
-68.475 107.325 2.475
-68.475 107.625 2.175
-68.475 107.925 2.775
-68.475 108.525 2.625
-68.475 108.675 2.025
-68.475 108.975 1.125
-68.475 108.975 2.475
-68.475 109.125 2.625
-68.475 109.275 2.625
-68.475 109.425 2.625
-68.475 109.575 2.325
-68.475 109.575 2.775
-68.475 110.025 2.475
-68.475 110.175 2.025
-68.475 110.325 2.175
-68.475 110.625 2.025
-68.475 110.625 2.175
-68.475 110.775 2.175
-68.475 111.075 1.575
-68.475 111.075 2.175
-68.475 111.075 2.625
-68.475 111.075 4.125
-68.475 111.525 2.475
-68.475 111.525 2.625
-68.475 111.525 2.925
-68.475 111.525 3.225
-68.475 111.675 -0.075
-68.475 111.675 0.675
-68.475 111.975 2.475
-68.475 112.275 -0.075
-68.475 112.275 2.925
-68.475 112.425 -0.225
-68.475 112.425 2.775
-68.475 112.725 -0.225
-68.475 113.025 1.875
-68.475 113.025 2.625
-68.475 113.025 3.375
-68.475 113.175 3.675
-68.475 113.625 0.975
-68.475 113.625 2.325
-68.475 113.625 2.775
-68.475 113.625 3.675
-68.475 113.925 0.075
-68.475 113.925 1.275
-68.475 113.925 3.375
-68.475 114.075 0.675
-68.475 114.075 1.125
-68.475 114.075 2.175
-68.475 114.075 3.825
-68.475 114.225 0.675
-68.475 114.525 0.975
-68.475 114.525 2.475
-68.475 114.675 0.975
-68.475 114.825 0.975
-68.475 114.825 3.975
-68.475 115.275 1.575
-68.475 115.275 3.675
-68.475 115.725 3.675
-68.475 115.875 3.975
-68.475 116.475 0.075
-68.475 116.475 3.225
-68.475 116.475 3.375
-68.475 116.625 0.225
-68.475 116.775 -0.525
-68.475 116.925 -0.525
-68.475 118.725 3.675
-68.475 119.025 2.475
-68.475 119.325 2.775
-68.475 119.475 2.625
-68.475 119.475 3.075
-68.475 120.675 3.525
-68.475 120.825 3.525
-68.475 120.975 3.525
-68.475 121.425 3.225
-68.475 121.575 3.225
-68.475 78.825 0.675
-68.475 79.125 1.875
-68.475 79.425 1.725
-68.475 79.425 4.575
-68.475 79.575 1.575
-68.475 79.725 2.775
-68.475 79.875 2.625
-68.475 80.025 2.625
-68.475 80.025 2.775
-68.475 80.025 5.325
-68.475 80.325 2.625
-68.475 80.775 3.675
-68.475 81.825 2.925
-68.475 82.125 -0.825
-68.475 82.125 2.175
-68.475 82.275 0.675
-68.475 82.275 1.425
-68.475 82.275 2.775
-68.475 82.425 -0.075
-68.475 82.425 0.675
-68.475 82.575 0.825
-68.475 82.575 2.175
-68.475 82.725 0.375
-68.475 82.725 0.675
-68.475 82.725 1.125
-68.475 82.875 2.925
-68.475 83.025 -0.375
-68.475 83.025 -1.125
-68.475 83.025 2.625
-68.475 83.175 0.075
-68.475 83.175 0.525
-68.475 83.175 0.825
-68.475 83.325 0.825
-68.475 83.775 2.625
-68.475 83.925 2.175
-68.475 84.075 -0.525
-68.475 84.075 2.025
-68.475 84.075 2.625
-68.475 84.225 2.025
-68.475 84.225 2.175
-68.475 84.375 2.325
-68.475 84.375 2.475
-68.475 84.525 2.025
-68.475 84.525 3.825
-68.475 84.675 2.325
-68.475 84.825 2.175
-68.475 84.975 1.575
-68.475 84.975 2.175
-68.475 84.975 2.325
-68.475 85.125 2.475
-68.475 85.425 0.675
-68.475 85.425 1.275
-68.475 85.425 1.725
-68.475 85.425 1.875
-68.475 85.425 2.025
-68.475 85.425 2.175
-68.475 85.575 0.825
-68.475 85.725 2.025
-68.475 85.875 -0.375
-68.475 85.875 0.825
-68.475 85.875 1.725
-68.625 101.025 3.225
-68.625 105.675 1.725
-68.625 105.975 2.025
-68.625 106.125 1.725
-68.625 106.125 2.025
-68.625 106.125 2.475
-68.625 106.275 1.875
-68.625 106.275 2.025
-68.625 106.425 2.175
-68.625 106.575 1.875
-68.625 106.575 2.325
-68.625 106.725 2.175
-68.625 106.875 1.725
-68.625 107.025 2.475
-68.625 107.175 2.025
-68.625 107.775 2.475
-68.625 107.925 2.475
-68.625 108.075 2.175
-68.625 108.225 2.175
-68.625 108.375 2.775
-68.625 108.525 2.325
-68.625 109.125 2.325
-68.625 109.425 2.475
-68.625 109.425 2.625
-68.625 109.725 2.625
-68.625 109.875 2.625
-68.625 110.025 2.025
-68.625 110.175 2.325
-68.625 110.175 3.525
-68.625 110.475 2.175
-68.625 110.625 2.325
-68.625 110.775 2.475
-68.625 110.925 2.925
-68.625 111.075 2.475
-68.625 111.075 2.625
-68.625 111.375 2.475
-68.625 111.975 -0.075
-68.625 111.975 2.925
-68.625 112.425 0.075
-68.625 112.425 1.875
-68.625 112.575 2.925
-68.625 112.875 0.825
-68.625 113.025 0.675
-68.625 113.475 0.675
-68.625 113.475 0.975
-68.625 113.475 1.425
-68.625 113.625 1.575
-68.625 113.925 0.825
-68.625 114.075 0.375
-68.625 114.075 0.525
-68.625 114.225 0.675
-68.625 114.525 -0.675
-68.625 114.975 3.825
-68.625 115.125 1.275
-68.625 115.725 3.225
-68.625 116.325 0.075
-68.625 116.775 -0.675
-68.625 116.775 2.925
-68.625 116.925 3.075
-68.625 117.075 3.375
-68.625 117.225 3.075
-68.625 117.225 3.225
-68.625 117.225 3.675
-68.625 117.375 3.375
-68.625 117.525 0.975
-68.625 117.525 3.825
-68.625 118.275 -1.425
-68.625 118.575 3.525
-68.625 118.725 3.075
-68.625 119.025 3.375
-68.625 119.025 3.825
-68.625 119.175 3.375
-68.625 119.325 3.825
-68.625 119.475 2.625
-68.625 119.775 3.075
-68.625 119.775 3.225
-68.625 120.375 3.075
-68.625 121.125 3.525
-68.625 121.275 3.525
-68.625 123.525 2.775
-68.625 78.825 2.775
-68.625 78.975 0.525
-68.625 79.275 1.275
-68.625 79.425 1.425
-68.625 79.425 1.575
-68.625 79.725 1.425
-68.625 79.875 2.325
-68.625 79.875 2.475
-68.625 81.075 2.625
-68.625 81.525 2.925
-68.625 81.825 2.775
-68.625 82.425 1.275
-68.625 82.575 -0.975
-68.625 82.725 0.675
-68.625 82.725 1.275
-68.625 82.725 2.475
-68.625 83.025 -0.525
-68.625 83.025 -0.675
-68.625 83.025 -0.825
-68.625 83.175 -0.975
-68.625 83.775 0.075
-68.625 83.775 2.475
-68.625 83.925 1.425
-68.625 83.925 2.625
-68.625 84.225 1.725
-68.625 84.225 2.025
-68.625 84.225 2.175
-68.625 84.225 2.625
-68.625 84.525 2.025
-68.625 84.525 2.475
-68.625 84.525 2.775
-68.625 84.675 1.725
-68.625 84.675 2.025
-68.625 84.675 2.775
-68.625 84.825 2.325
-68.625 85.125 0.825
-68.625 85.125 2.175
-68.625 85.125 2.325
-68.625 85.275 2.175
-68.625 85.425 0.675
-68.625 85.425 0.825
-68.625 85.575 2.175
-68.625 85.725 1.725
-68.625 86.025 1.275
-68.625 86.325 1.125
-68.625 86.475 0.975
-68.775 103.575 0.525
-68.775 104.175 0.675
-68.775 104.625 1.875
-68.775 104.925 1.575
-68.775 105.075 0.825
-68.775 105.075 1.425
-68.775 105.225 1.275
-68.775 105.375 2.775
-68.775 105.525 0.375
-68.775 105.525 1.725
-68.775 105.525 2.175
-68.775 105.525 2.625
-68.775 105.525 3.225
-68.775 105.675 2.025
-68.775 105.825 1.875
-68.775 105.825 2.175
-68.775 105.825 2.475
-68.775 105.975 1.875
-68.775 105.975 2.325
-68.775 106.125 1.875
-68.775 106.275 2.475
-68.775 106.575 1.875
-68.775 106.875 2.175
-68.775 107.175 2.625
-68.775 107.325 1.875
-68.775 107.325 2.325
-68.775 107.625 1.275
-68.775 107.925 2.325
-68.775 107.925 2.625
-68.775 108.075 1.875
-68.775 108.075 2.475
-68.775 108.075 2.625
-68.775 108.225 2.175
-68.775 108.375 1.725
-68.775 108.375 2.475
-68.775 108.525 2.475
-68.775 108.675 -0.825
-68.775 108.675 2.475
-68.775 108.825 1.425
-68.775 108.975 2.025
-68.775 108.975 2.625
-68.775 108.975 3.375
-68.775 109.125 2.175
-68.775 109.275 2.025
-68.775 109.275 2.775
-68.775 109.425 2.325
-68.775 109.425 2.625
-68.775 110.025 2.625
-68.775 110.175 2.475
-68.775 110.175 2.775
-68.775 110.475 0.075
-68.775 110.625 2.175
-68.775 110.625 2.325
-68.775 110.625 2.475
-68.775 110.625 2.625
-68.775 110.775 2.625
-68.775 110.925 4.275
-68.775 111.225 2.025
-68.775 111.525 -0.975
-68.775 111.525 3.525
-68.775 111.675 -0.075
-68.775 111.675 0.825
-68.775 111.675 2.475
-68.775 111.675 3.675
-68.775 111.975 -0.375
-68.775 111.975 0.075
-68.775 112.125 -1.875
-68.775 112.125 0.675
-68.775 112.425 -0.225
-68.775 112.575 -0.375
-68.775 112.875 -0.225
-68.775 113.025 0.225
-68.775 113.025 0.675
-68.775 113.175 1.125
-68.775 113.175 1.275
-68.775 113.325 0.825
-68.775 113.325 1.125
-68.775 113.325 2.775
-68.775 113.625 0.975
-68.775 113.775 0.975
-68.775 114.525 3.675
-68.775 114.675 2.475
-68.775 114.825 3.075
-68.775 114.825 3.825
-68.775 114.975 3.825
-68.775 115.425 2.625
-68.775 115.725 4.425
-68.775 115.875 0.975
-68.775 116.025 4.275
-68.775 116.175 0.225
-68.775 116.325 0.225
-68.775 116.325 3.375
-68.775 116.925 -0.525
-68.775 116.925 3.075
-68.775 116.925 3.375
-68.775 116.925 3.825
-68.775 117.825 2.775
-68.775 118.725 2.325
-68.775 118.725 3.675
-68.775 118.875 2.925
-68.775 118.875 3.975
-68.775 119.175 3.225
-68.775 119.325 3.375
-68.775 119.475 3.225
-68.775 119.625 3.225
-68.775 119.775 3.225
-68.775 120.675 3.525
-68.775 121.275 3.375
-68.775 121.275 3.525
-68.775 122.925 2.325
-68.775 123.525 2.325
-68.775 78.675 2.175
-68.775 78.825 2.475
-68.775 78.975 0.975
-68.775 79.125 1.275
-68.775 79.275 0.825
-68.775 79.425 2.025
-68.775 79.725 0.975
-68.775 79.725 1.875
-68.775 79.725 2.775
-68.775 79.875 2.325
-68.775 80.025 2.475
-68.775 80.025 2.775
-68.775 80.175 2.325
-68.775 80.175 2.475
-68.775 80.475 2.925
-68.775 80.775 -2.475
-68.775 80.925 2.325
-68.775 81.225 3.375
-68.775 81.375 3.075
-68.775 81.375 4.275
-68.775 81.525 3.375
-68.775 81.675 0.825
-68.775 82.125 -0.375
-68.775 82.125 2.325
-68.775 82.425 2.325
-68.775 82.725 0.675
-68.775 83.025 -1.125
-68.775 83.325 -0.225
-68.775 83.325 -0.825
-68.775 83.475 -1.425
-68.775 83.475 0.075
-68.775 83.775 2.175
-68.775 83.925 -0.075
-68.775 84.225 2.175
-68.775 84.825 2.025
-68.775 84.825 2.775
-68.775 84.975 2.025
-68.775 84.975 2.475
-68.775 84.975 2.925
-68.775 85.125 2.175
-68.775 85.275 -0.825
-68.775 85.425 0.825
-68.775 85.725 1.425
-68.775 85.725 1.575
-68.775 85.875 0.825
-68.775 85.875 1.875
-68.775 86.025 1.875
-68.775 86.025 2.025
-68.775 86.475 2.325
-68.775 86.625 3.825
-68.775 96.975 2.475
-68.925 101.175 5.025
-68.925 103.275 0.675
-68.925 103.725 1.575
-68.925 103.725 1.725
-68.925 103.875 2.325
-68.925 104.025 0.825
-68.925 104.175 1.125
-68.925 104.325 0.975
-68.925 104.325 1.275
-68.925 104.475 0.975
-68.925 104.925 1.425
-68.925 104.925 2.025
-68.925 105.075 1.425
-68.925 105.075 1.725
-68.925 105.225 1.425
-68.925 105.225 1.575
-68.925 105.225 3.075
-68.925 105.375 2.175
-68.925 105.375 3.075
-68.925 105.525 1.575
-68.925 105.825 1.275
-68.925 105.825 1.875
-68.925 105.975 2.175
-68.925 106.125 2.175
-68.925 106.125 2.625
-68.925 106.125 3.225
-68.925 106.275 2.475
-68.925 106.575 2.325
-68.925 106.575 2.625
-68.925 106.725 2.325
-68.925 107.325 1.875
-68.925 107.325 2.025
-68.925 107.325 2.625
-68.925 107.475 1.275
-68.925 107.475 2.325
-68.925 107.475 2.625
-68.925 107.625 1.575
-68.925 107.775 2.025
-68.925 107.925 -0.825
-68.925 108.075 2.025
-68.925 108.075 2.325
-68.925 108.225 0.225
-68.925 108.225 2.925
-68.925 108.375 2.475
-68.925 108.375 2.925
-68.925 108.525 2.775
-68.925 108.675 -0.225
-68.925 108.675 2.325
-68.925 108.675 2.475
-68.925 108.675 2.625
-68.925 108.675 2.775
-68.925 108.975 2.475
-68.925 108.975 2.775
-68.925 108.975 3.375
-68.925 108.975 3.525
-68.925 109.125 2.625
-68.925 109.275 2.475
-68.925 109.275 2.775
-68.925 109.425 2.625
-68.925 109.575 2.625
-68.925 109.725 2.775
-68.925 109.875 2.775
-68.925 110.475 2.775
-68.925 110.775 -0.525
-68.925 110.775 0.975
-68.925 110.925 0.975
-68.925 111.375 -0.525
-68.925 111.375 -3.225
-68.925 111.525 0.825
-68.925 111.675 -0.075
-68.925 111.675 0.825
-68.925 111.675 2.925
-68.925 111.675 3.375
-68.925 111.825 -0.375
-68.925 111.825 0.825
-68.925 111.975 -0.075
-68.925 112.275 -0.225
-68.925 112.575 0.975
-68.925 112.725 0.525
-68.925 112.725 0.675
-68.925 112.725 0.975
-68.925 112.725 1.425
-68.925 112.875 1.575
-68.925 113.025 0.825
-68.925 113.175 -1.275
-68.925 113.175 0.375
-68.925 113.175 0.675
-68.925 113.175 0.825
-68.925 113.175 2.475
-68.925 113.775 1.125
-68.925 114.525 0.075
-68.925 114.525 3.225
-68.925 114.675 1.725
-68.925 114.825 0.225
-68.925 114.825 1.575
-68.925 114.975 0.675
-68.925 114.975 2.925
-68.925 115.125 2.325
-68.925 115.725 0.975
-68.925 115.725 2.925
-68.925 115.875 0.975
-68.925 115.875 2.775
-68.925 115.875 2.925
-68.925 116.775 4.275
-68.925 116.925 3.075
-68.925 116.925 3.525
-68.925 117.075 3.225
-68.925 117.375 3.375
-68.925 117.825 2.925
-68.925 117.825 3.675
-68.925 117.975 2.775
-68.925 117.975 3.675
-68.925 118.125 3.075
-68.925 119.325 3.075
-68.925 119.325 3.225
-68.925 119.325 3.375
-68.925 119.625 3.225
-68.925 120.975 3.375
-68.925 122.925 2.175
-68.925 79.425 2.175
-68.925 79.425 2.475
-68.925 79.425 2.925
-68.925 80.175 1.275
-68.925 80.325 0.975
-68.925 80.325 1.575
-68.925 80.625 2.475
-68.925 80.775 1.575
-68.925 80.775 2.025
-68.925 80.925 0.675
-68.925 81.675 0.975
-68.925 81.825 2.775
-68.925 82.125 2.475
-68.925 82.425 3.225
-68.925 82.575 1.875
-68.925 82.575 2.925
-68.925 82.575 3.225
-68.925 82.725 0.375
-68.925 82.725 0.675
-68.925 82.725 1.425
-68.925 83.025 -0.975
-68.925 83.025 0.075
-68.925 83.175 -0.825
-68.925 83.325 -1.125
-68.925 83.325 0.225
-68.925 83.325 3.075
-68.925 83.475 -0.975
-68.925 83.475 1.875
-68.925 83.475 2.025
-68.925 83.775 0.375
-68.925 83.925 -0.075
-68.925 84.075 1.575
-68.925 84.075 3.375
-68.925 84.225 -1.275
-68.925 84.225 0.525
-68.925 84.225 0.675
-68.925 84.225 3.075
-68.925 84.525 2.325
-68.925 84.675 2.475
-68.925 84.675 2.925
-68.925 84.675 4.425
-68.925 84.825 1.725
-68.925 84.825 2.025
-68.925 84.975 1.275
-68.925 84.975 1.725
-68.925 84.975 2.025
-68.925 84.975 2.475
-68.925 85.125 2.175
-68.925 85.125 2.625
-68.925 85.725 0.375
-68.925 85.725 2.475
-68.925 85.875 1.725
-68.925 85.875 2.175
-68.925 86.025 1.125
-68.925 86.025 1.875
-68.925 86.025 2.025
-68.925 88.725 2.475
-69.075 100.425 1.125
-69.075 101.025 2.025
-69.075 101.775 3.675
-69.075 101.775 4.275
-69.075 103.425 1.425
-69.075 103.575 0.975
-69.075 103.575 1.275
-69.075 103.575 2.025
-69.075 103.725 0.825
-69.075 103.725 1.125
-69.075 103.725 2.625
-69.075 103.875 0.975
-69.075 103.875 3.975
-69.075 104.025 2.475
-69.075 104.175 1.275
-69.075 104.175 1.875
-69.075 104.325 0.225
-69.075 104.775 1.575
-69.075 104.925 1.875
-69.075 104.925 2.625
-69.075 105.375 2.025
-69.075 105.825 2.175
-69.075 105.975 -0.375
-69.075 105.975 2.475
-69.075 106.275 2.475
-69.075 106.275 3.075
-69.075 106.275 3.375
-69.075 106.575 2.775
-69.075 107.025 2.475
-69.075 107.025 2.775
-69.075 107.175 2.475
-69.075 107.625 0.375
-69.075 107.625 1.875
-69.075 107.625 2.175
-69.075 107.625 2.325
-69.075 107.625 3.225
-69.075 107.775 2.625
-69.075 107.925 1.275
-69.075 107.925 1.725
-69.075 107.925 2.475
-69.075 107.925 2.775
-69.075 108.075 2.325
-69.075 108.075 2.775
-69.075 108.225 0.225
-69.075 108.375 -0.225
-69.075 108.375 2.925
-69.075 108.525 2.175
-69.075 108.525 2.925
-69.075 108.675 0.075
-69.075 108.675 2.175
-69.075 108.825 3.825
-69.075 108.975 2.475
-69.075 109.125 2.775
-69.075 109.575 2.325
-69.075 109.575 2.775
-69.075 109.575 4.275
-69.075 111.075 0.825
-69.075 111.225 0.825
-69.075 111.375 0.975
-69.075 111.375 3.075
-69.075 111.825 0.825
-69.075 111.825 1.275
-69.075 111.975 0.825
-69.075 111.975 2.025
-69.075 111.975 2.325
-69.075 112.125 2.025
-69.075 112.275 2.625
-69.075 112.425 2.625
-69.075 112.425 3.825
-69.075 112.425 4.425
-69.075 112.575 0.225
-69.075 112.575 0.825
-69.075 112.575 1.125
-69.075 112.725 0.975
-69.075 112.875 0.975
-69.075 113.325 -0.375
-69.075 113.325 0.525
-69.075 114.225 0.225
-69.075 114.225 0.675
-69.075 114.225 3.375
-69.075 114.525 1.875
-69.075 114.525 2.475
-69.075 114.975 -0.975
-69.075 114.975 1.275
-69.075 115.125 2.325
-69.075 115.275 2.625
-69.075 115.275 2.925
-69.075 115.875 4.125
-69.075 116.025 3.525
-69.075 116.025 4.275
-69.075 116.325 2.175
-69.075 116.925 2.625
-69.075 117.075 3.675
-69.075 117.225 2.475
-69.075 117.525 3.075
-69.075 117.525 3.525
-69.075 117.825 2.775
-69.075 117.825 4.275
-69.075 118.275 2.925
-69.075 118.275 3.975
-69.075 118.425 2.775
-69.075 118.575 3.975
-69.075 118.725 1.725
-69.075 119.325 3.075
-69.075 119.475 2.775
-69.075 120.825 3.525
-69.075 120.825 3.675
-69.075 80.175 1.425
-69.075 80.325 3.075
-69.075 80.325 3.225
-69.075 80.475 0.375
-69.075 80.475 1.275
-69.075 80.625 0.825
-69.075 80.625 1.275
-69.075 80.625 3.225
-69.075 80.775 1.125
-69.075 80.775 1.875
-69.075 80.775 2.175
-69.075 80.925 2.175
-69.075 81.225 1.425
-69.075 81.225 2.325
-69.075 81.375 1.425
-69.075 81.375 2.625
-69.075 82.125 2.175
-69.075 82.275 2.475
-69.075 82.425 3.075
-69.075 82.875 1.425
-69.075 83.175 0.375
-69.075 83.475 0.075
-69.075 83.475 0.675
-69.075 83.475 2.175
-69.075 83.775 2.325
-69.075 84.075 -0.225
-69.075 84.225 0.525
-69.075 84.375 0.225
-69.075 84.675 -0.675
-69.075 84.675 1.875
-69.075 84.825 2.775
-69.075 84.975 2.775
-69.075 85.425 2.325
-69.075 85.425 2.625
-69.075 85.725 1.425
-69.075 85.725 1.875
-69.075 85.725 2.475
-69.075 85.875 2.025
-69.075 86.025 1.425
-69.075 86.025 1.725
-69.075 86.025 1.875
-69.075 86.175 1.425
-69.075 86.175 1.725
-69.075 86.175 1.875
-69.075 86.175 2.175
-69.075 86.325 1.575
-69.075 86.475 0.675
-69.075 86.775 2.025
-69.075 87.375 1.725
-69.075 88.275 1.275
-69.075 89.925 1.725
-69.225 100.725 2.625
-69.225 101.175 1.575
-69.225 101.625 3.975
-69.225 102.675 0.825
-69.225 102.825 1.425
-69.225 102.975 1.425
-69.225 103.125 1.575
-69.225 103.425 1.425
-69.225 103.575 0.975
-69.225 103.575 1.275
-69.225 103.575 1.725
-69.225 103.575 2.775
-69.225 103.725 2.025
-69.225 103.875 0.975
-69.225 103.875 1.125
-69.225 103.875 2.625
-69.225 104.025 2.625
-69.225 104.175 1.725
-69.225 104.325 1.725
-69.225 104.325 2.025
-69.225 104.475 1.725
-69.225 104.775 2.025
-69.225 104.775 2.325
-69.225 105.075 2.475
-69.225 105.075 2.625
-69.225 105.075 3.075
-69.225 105.075 3.375
-69.225 105.225 1.875
-69.225 105.525 2.175
-69.225 105.525 2.625
-69.225 105.525 2.925
-69.225 105.675 2.925
-69.225 105.825 1.425
-69.225 105.825 2.775
-69.225 105.975 1.875
-69.225 106.425 1.425
-69.225 106.575 2.925
-69.225 106.725 2.475
-69.225 106.725 2.775
-69.225 106.875 2.775
-69.225 106.875 2.925
-69.225 107.025 2.325
-69.225 107.325 2.475
-69.225 107.625 2.475
-69.225 107.775 2.025
-69.225 107.775 2.175
-69.225 107.775 2.325
-69.225 107.775 2.925
-69.225 107.775 3.975
-69.225 107.925 1.425
-69.225 107.925 2.175
-69.225 107.925 2.625
-69.225 108.225 2.625
-69.225 108.525 -0.075
-69.225 108.525 1.275
-69.225 108.525 1.875
-69.225 108.525 3.675
-69.225 108.675 2.025
-69.225 108.825 0.075
-69.225 108.825 2.475
-69.225 109.125 0.225
-69.225 109.425 0.525
-69.225 109.575 3.075
-69.225 109.725 2.475
-69.225 110.475 0.375
-69.225 110.625 0.825
-69.225 110.925 3.825
-69.225 111.075 1.425
-69.225 111.075 3.375
-69.225 111.075 4.125
-69.225 111.225 0.525
-69.225 111.225 0.825
-69.225 111.225 1.275
-69.225 111.225 1.425
-69.225 111.375 4.125
-69.225 111.525 0.975
-69.225 111.675 0.975
-69.225 111.825 0.525
-69.225 111.825 0.675
-69.225 111.825 0.975
-69.225 111.825 1.425
-69.225 111.825 2.175
-69.225 111.975 0.825
-69.225 111.975 1.575
-69.225 111.975 2.475
-69.225 112.425 2.325
-69.225 112.725 -0.225
-69.225 112.875 0.375
-69.225 112.875 2.475
-69.225 113.025 -0.075
-69.225 113.025 -0.225
-69.225 113.025 1.125
-69.225 113.625 1.875
-69.225 113.775 -0.375
-69.225 113.925 2.325
-69.225 114.225 1.275
-69.225 114.375 3.075
-69.225 114.975 0.675
-69.225 115.125 1.875
-69.225 115.275 2.475
-69.225 115.275 2.775
-69.225 116.025 2.625
-69.225 116.025 3.675
-69.225 116.175 2.025
-69.225 116.175 3.225
-69.225 116.775 4.125
-69.225 117.075 2.475
-69.225 117.075 2.775
-69.225 117.375 3.375
-69.225 117.525 3.225
-69.225 117.975 2.775
-69.225 118.725 1.725
-69.225 118.725 2.925
-69.225 119.925 2.775
-69.225 120.375 3.225
-69.225 77.775 -3.525
-69.225 80.175 2.775
-69.225 80.325 1.425
-69.225 80.325 2.475
-69.225 80.325 2.775
-69.225 80.475 2.625
-69.225 80.625 -0.075
-69.225 80.625 0.225
-69.225 80.625 1.425
-69.225 80.625 2.475
-69.225 80.775 1.275
-69.225 80.775 2.325
-69.225 80.925 0.975
-69.225 80.925 1.425
-69.225 80.925 2.325
-69.225 80.925 2.925
-69.225 81.075 1.725
-69.225 81.225 1.575
-69.225 81.225 1.725
-69.225 81.375 1.575
-69.225 81.525 -4.575
-69.225 81.525 1.875
-69.225 82.125 1.875
-69.225 82.275 2.025
-69.225 82.875 2.475
-69.225 83.175 -0.675
-69.225 83.325 -0.975
-69.225 83.325 -1.125
-69.225 83.325 0.825
-69.225 83.475 1.125
-69.225 83.625 0.075
-69.225 83.625 0.375
-69.225 83.625 0.675
-69.225 83.625 1.275
-69.225 83.925 -0.525
-69.225 84.075 0.225
-69.225 84.075 0.975
-69.225 84.075 1.125
-69.225 84.225 0.525
-69.225 84.525 -0.525
-69.225 84.825 -0.975
-69.225 84.825 2.775
-69.225 84.975 3.075
-69.225 85.425 2.625
-69.225 85.575 2.025
-69.225 85.575 2.175
-69.225 85.725 2.175
-69.225 85.725 2.625
-69.225 86.025 3.225
-69.225 86.175 1.725
-69.225 86.175 2.025
-69.225 86.325 0.525
-69.225 86.325 0.975
-69.225 86.325 1.275
-69.225 86.325 1.875
-69.225 86.325 2.025
-69.225 86.625 1.425
-69.225 86.625 1.575
-69.225 86.625 1.875
-69.225 86.775 1.575
-69.225 88.275 0.675
-69.225 89.325 1.875
-69.225 92.175 0.675
-69.375 101.925 -0.075
-69.375 102.225 1.125
-69.375 102.375 1.425
-69.375 102.975 1.725
-69.375 103.125 0.675
-69.375 103.125 1.575
-69.375 103.275 0.075
-69.375 103.275 1.725
-69.375 103.275 1.875
-69.375 103.425 1.575
-69.375 103.575 1.425
-69.375 103.575 1.725
-69.375 103.575 1.875
-69.375 103.575 3.375
-69.375 103.725 1.425
-69.375 103.725 2.925
-69.375 103.875 1.575
-69.375 103.875 2.625
-69.375 104.025 1.725
-69.375 104.325 1.575
-69.375 104.475 3.675
-69.375 104.475 3.825
-69.375 104.625 2.175
-69.375 104.775 2.775
-69.375 104.775 3.075
-69.375 104.925 2.325
-69.375 104.925 3.525
-69.375 104.925 3.825
-69.375 105.075 2.175
-69.375 105.075 3.825
-69.375 105.375 2.775
-69.375 105.525 2.625
-69.375 105.825 2.925
-69.375 106.275 2.325
-69.375 106.425 2.325
-69.375 106.425 2.625
-69.375 106.725 2.025
-69.375 106.875 2.475
-69.375 106.875 3.375
-69.375 107.025 2.175
-69.375 107.025 2.475
-69.375 107.775 3.825
-69.375 108.075 0.075
-69.375 108.075 2.175
-69.375 108.525 2.925
-69.375 108.525 3.225
-69.375 108.675 0.375
-69.375 108.675 0.975
-69.375 108.825 3.525
-69.375 108.975 1.275
-69.375 109.125 3.975
-69.375 109.125 4.125
-69.375 109.425 2.175
-69.375 109.575 0.975
-69.375 109.725 0.975
-69.375 109.725 1.275
-69.375 109.725 2.025
-69.375 109.875 0.525
-69.375 110.175 2.775
-69.375 110.775 0.825
-69.375 111.225 -0.075
-69.375 111.225 3.675
-69.375 111.375 0.825
-69.375 111.525 -0.075
-69.375 111.525 -0.225
-69.375 111.525 0.675
-69.375 111.525 1.425
-69.375 111.675 0.975
-69.375 111.675 1.125
-69.375 111.675 1.575
-69.375 111.675 2.775
-69.375 111.825 -0.375
-69.375 111.975 0.075
-69.375 111.975 0.975
-69.375 112.125 0.975
-69.375 112.125 1.125
-69.375 112.275 0.525
-69.375 112.275 0.675
-69.375 112.275 0.825
-69.375 112.425 0.375
-69.375 112.725 -0.075
-69.375 112.875 0.525
-69.375 113.025 -0.075
-69.375 113.025 1.725
-69.375 113.925 1.725
-69.375 114.375 2.475
-69.375 114.525 2.475
-69.375 114.825 0.675
-69.375 114.975 1.875
-69.375 114.975 2.625
-69.375 115.125 2.475
-69.375 115.125 2.775
-69.375 115.575 2.925
-69.375 115.575 3.525
-69.375 115.875 2.775
-69.375 116.325 4.575
-69.375 116.925 2.925
-69.375 117.075 3.825
-69.375 117.225 2.475
-69.375 117.225 2.625
-69.375 117.375 2.475
-69.375 117.525 3.375
-69.375 117.675 3.375
-69.375 117.825 2.325
-69.375 118.275 3.675
-69.375 118.725 3.075
-69.375 79.125 1.575
-69.375 79.875 3.075
-69.375 80.175 3.075
-69.375 80.175 3.375
-69.375 80.325 3.375
-69.375 80.475 1.425
-69.375 80.625 2.625
-69.375 80.625 3.375
-69.375 80.775 -3.825
-69.375 80.775 0.825
-69.375 80.775 1.125
-69.375 81.225 2.475
-69.375 81.375 1.875
-69.375 81.675 2.925
-69.375 81.825 1.575
-69.375 82.125 2.475
-69.375 82.275 -0.075
-69.375 82.425 3.375
-69.375 83.025 1.275
-69.375 83.175 2.325
-69.375 83.325 3.375
-69.375 83.475 0.675
-69.375 83.775 -0.375
-69.375 83.775 0.525
-69.375 84.225 0.525
-69.375 84.375 -0.225
-69.375 84.375 0.675
-69.375 84.525 0.225
-69.375 84.825 2.925
-69.375 84.975 -0.975
-69.375 85.275 0.975
-69.375 85.425 2.775
-69.375 85.725 2.175
-69.375 85.725 2.325
-69.375 86.025 2.025
-69.375 86.175 0.975
-69.375 86.325 1.875
-69.375 86.325 2.025
-69.375 86.475 1.875
-69.375 86.625 0.375
-69.375 86.625 1.125
-69.375 86.625 1.425
-69.375 86.625 2.025
-69.375 86.625 2.175
-69.375 86.775 1.125
-69.375 86.775 1.275
-69.375 86.775 1.425
-69.375 86.775 1.725
-69.375 86.925 1.275
-69.375 87.075 1.425
-69.375 87.075 1.725
-69.375 87.225 1.575
-69.375 87.525 0.975
-69.375 87.525 1.275
-69.375 87.525 1.725
-69.375 87.675 1.125
-69.375 88.275 1.575
-69.375 88.425 2.775
-69.375 91.875 0.825
-69.375 92.175 2.175
-69.525 101.175 1.125
-69.525 101.925 1.725
-69.525 102.225 1.575
-69.525 102.375 1.425
-69.525 102.675 1.575
-69.525 102.675 2.625
-69.525 102.825 2.175
-69.525 102.975 0.675
-69.525 102.975 2.025
-69.525 103.125 2.175
-69.525 103.275 1.725
-69.525 103.425 1.425
-69.525 103.575 1.725
-69.525 103.575 2.475
-69.525 103.725 0.225
-69.525 103.725 2.625
-69.525 103.875 2.625
-69.525 104.025 2.775
-69.525 104.925 3.225
-69.525 104.925 3.375
-69.525 105.075 0.525
-69.525 105.075 2.175
-69.525 105.075 3.675
-69.525 105.075 3.825
-69.525 105.375 0.225
-69.525 105.375 3.075
-69.525 105.525 2.925
-69.525 105.675 2.925
-69.525 106.125 2.325
-69.525 106.425 2.475
-69.525 106.575 2.325
-69.525 106.575 2.625
-69.525 106.725 2.175
-69.525 106.875 2.325
-69.525 106.875 2.475
-69.525 107.475 -0.225
-69.525 107.475 0.375
-69.525 107.625 2.925
-69.525 107.775 3.975
-69.525 107.925 2.325
-69.525 108.075 -0.075
-69.525 108.075 -0.975
-69.525 108.075 2.625
-69.525 108.225 2.625
-69.525 108.225 2.775
-69.525 108.225 2.925
-69.525 108.375 2.175
-69.525 108.375 2.925
-69.525 108.675 0.975
-69.525 108.825 0.975
-69.525 108.975 0.975
-69.525 108.975 3.375
-69.525 109.275 2.325
-69.525 109.575 0.375
-69.525 109.725 0.225
-69.525 109.725 0.975
-69.525 109.725 1.425
-69.525 109.725 1.575
-69.525 109.725 3.225
-69.525 109.875 0.225
-69.525 109.875 0.675
-69.525 109.875 0.975
-69.525 109.875 1.275
-69.525 109.875 1.575
-69.525 109.875 2.175
-69.525 110.325 0.975
-69.525 110.625 0.375
-69.525 110.775 2.625
-69.525 111.075 -0.525
-69.525 111.075 3.975
-69.525 111.225 2.325
-69.525 111.225 2.775
-69.525 111.375 2.775
-69.525 111.525 0.075
-69.525 111.525 0.225
-69.525 111.525 1.125
-69.525 111.525 2.475
-69.525 111.675 -0.525
-69.525 111.675 0.975
-69.525 111.825 0.975
-69.525 111.975 -0.225
-69.525 111.975 0.075
-69.525 111.975 1.125
-69.525 111.975 3.525
-69.525 112.275 -0.075
-69.525 112.275 1.875
-69.525 112.275 2.325
-69.525 112.275 2.625
-69.525 112.575 -2.025
-69.525 112.575 0.225
-69.525 112.575 0.375
-69.525 112.725 0.225
-69.525 112.875 -0.225
-69.525 112.875 0.075
-69.525 113.025 0.075
-69.525 113.025 0.375
-69.525 113.175 0.675
-69.525 113.175 2.925
-69.525 114.075 1.725
-69.525 114.225 3.075
-69.525 114.375 2.475
-69.525 114.525 0.525
-69.525 114.525 2.475
-69.525 114.675 2.925
-69.525 114.825 2.325
-69.525 114.825 2.475
-69.525 115.125 2.625
-69.525 115.125 2.925
-69.525 116.025 3.825
-69.525 116.325 1.425
-69.525 116.325 3.225
-69.525 116.475 4.125
-69.525 117.525 2.925
-69.525 118.725 2.925
-69.525 120.675 2.775
-69.525 78.675 4.725
-69.525 80.775 1.125
-69.525 80.775 3.075
-69.525 80.925 0.975
-69.525 81.075 0.825
-69.525 81.375 2.175
-69.525 81.675 1.275
-69.525 81.675 1.725
-69.525 81.975 2.475
-69.525 82.425 -4.275
-69.525 83.025 2.325
-69.525 83.175 3.075
-69.525 83.325 2.475
-69.525 83.475 3.825
-69.525 83.475 3.975
-69.525 83.625 0.675
-69.525 83.775 -0.825
-69.525 83.775 3.075
-69.525 84.075 3.525
-69.525 84.375 2.475
-69.525 84.525 2.775
-69.525 84.825 -0.675
-69.525 84.825 0.075
-69.525 84.825 3.075
-69.525 84.975 2.325
-69.525 84.975 3.075
-69.525 85.125 -3.225
-69.525 85.575 0.225
-69.525 85.575 2.475
-69.525 85.875 1.725
-69.525 85.875 2.025
-69.525 85.875 2.325
-69.525 86.175 0.975
-69.525 86.325 0.675
-69.525 86.325 1.875
-69.525 86.475 1.275
-69.525 86.925 1.275
-69.525 86.925 1.425
-69.525 86.925 1.575
-69.525 87.075 1.125
-69.525 87.075 1.425
-69.525 87.225 0.975
-69.525 87.225 2.325
-69.525 87.375 0.675
-69.525 87.375 1.275
-69.525 87.375 1.725
-69.525 87.525 0.825
-69.525 87.525 1.725
-69.525 87.975 0.675
-69.525 88.125 0.675
-69.525 99.075 3.975
-69.675 100.575 0.225
-69.675 100.725 1.275
-69.675 100.725 2.025
-69.675 101.175 1.125
-69.675 101.325 1.425
-69.675 101.325 2.175
-69.675 101.475 1.275
-69.675 101.475 1.425
-69.675 101.625 2.175
-69.675 101.775 1.275
-69.675 101.775 2.025
-69.675 101.925 2.025
-69.675 102.225 1.725
-69.675 102.375 1.425
-69.675 102.375 1.725
-69.675 102.375 1.875
-69.675 102.375 2.925
-69.675 102.375 3.075
-69.675 102.525 1.725
-69.675 102.525 1.875
-69.675 102.675 2.025
-69.675 102.825 0.825
-69.675 102.825 1.725
-69.675 102.975 1.575
-69.675 102.975 1.725
-69.675 103.125 1.575
-69.675 103.125 1.875
-69.675 103.275 0.225
-69.675 103.275 1.725
-69.675 103.275 1.875
-69.675 103.425 1.875
-69.675 103.575 3.225
-69.675 103.725 2.625
-69.675 103.725 3.225
-69.675 103.875 2.475
-69.675 103.875 2.625
-69.675 103.875 2.775
-69.675 104.175 2.175
-69.675 104.925 3.675
-69.675 105.825 4.125
-69.675 106.125 2.475
-69.675 106.125 2.625
-69.675 106.275 -0.975
-69.675 106.275 3.075
-69.675 106.425 -0.975
-69.675 106.425 -4.125
-69.675 106.575 4.875
-69.675 106.725 3.225
-69.675 107.025 0.225
-69.675 107.025 3.825
-69.675 107.175 0.075
-69.675 107.175 2.625
-69.675 107.325 0.825
-69.675 107.475 2.325
-69.675 107.775 -0.075
-69.675 107.775 2.625
-69.675 107.925 -0.675
-69.675 108.075 -0.375
-69.675 108.375 0.975
-69.675 108.525 0.975
-69.675 108.675 1.575
-69.675 108.825 -0.525
-69.675 108.825 0.975
-69.675 108.975 -0.675
-69.675 108.975 0.675
-69.675 108.975 0.975
-69.675 108.975 1.425
-69.675 109.125 0.975
-69.675 109.275 -0.825
-69.675 109.275 1.725
-69.675 109.575 -0.675
-69.675 109.725 -0.225
-69.675 109.725 0.375
-69.675 109.875 0.975
-69.675 110.175 -0.375
-69.675 110.325 -0.375
-69.675 110.475 -0.075
-69.675 110.475 -0.225
-69.675 110.475 -0.525
-69.675 110.625 -0.525
-69.675 110.775 -0.525
-69.675 110.775 -0.675
-69.675 110.925 0.825
-69.675 110.925 1.125
-69.675 110.925 1.575
-69.675 111.075 1.575
-69.675 111.075 4.125
-69.675 111.375 3.225
-69.675 111.525 3.225
-69.675 111.825 4.575
-69.675 111.975 2.325
-69.675 111.975 3.525
-69.675 112.425 2.025
-69.675 112.575 -0.225
-69.675 112.575 2.025
-69.675 113.025 0.375
-69.675 113.175 0.225
-69.675 113.175 0.375
-69.675 113.175 0.825
-69.675 113.175 1.575
-69.675 114.075 0.375
-69.675 114.375 3.825
-69.675 114.525 2.925
-69.675 114.675 2.925
-69.675 114.825 2.475
-69.675 114.825 3.075
-69.675 114.825 3.375
-69.675 114.975 2.925
-69.675 115.125 2.325
-69.675 115.275 2.625
-69.675 115.575 3.375
-69.675 116.775 3.675
-69.675 116.925 1.575
-69.675 116.925 2.625
-69.675 117.375 2.175
-69.675 117.825 1.125
-69.675 118.575 2.475
-69.675 118.575 3.225
-69.675 119.475 2.775
-69.675 80.925 0.825
-69.675 80.925 1.575
-69.675 81.075 2.025
-69.675 81.675 0.375
-69.675 81.675 1.725
-69.675 81.675 1.875
-69.675 82.725 2.475
-69.675 83.325 -0.225
-69.675 83.325 1.575
-69.675 83.625 -0.675
-69.675 83.775 -0.825
-69.675 83.775 3.975
-69.675 83.925 3.075
-69.675 84.075 -0.675
-69.675 84.075 0.675
-69.675 84.225 0.375
-69.675 84.225 0.675
-69.675 84.225 1.125
-69.675 84.375 3.525
-69.675 84.525 3.075
-69.675 84.675 0.525
-69.675 84.975 -0.525
-69.675 85.125 -0.075
-69.675 85.125 -0.375
-69.675 85.275 -0.525
-69.675 85.275 -1.125
-69.675 85.275 2.775
-69.675 85.575 -0.975
-69.675 85.575 2.175
-69.675 85.875 2.175
-69.675 86.325 1.725
-69.675 86.325 2.175
-69.675 86.325 2.325
-69.675 86.475 2.025
-69.675 86.475 2.325
-69.675 86.625 1.575
-69.675 86.625 2.325
-69.675 86.625 3.675
-69.675 86.775 1.575
-69.675 86.775 2.475
-69.675 87.075 0.825
-69.675 87.225 1.275
-69.675 87.225 1.725
-69.675 87.225 2.025
-69.675 87.225 2.175
-69.675 87.375 1.125
-69.675 87.375 1.425
-69.675 87.375 1.575
-69.675 87.525 1.125
-69.675 87.525 1.425
-69.675 87.525 1.725
-69.675 87.525 2.025
-69.675 87.675 1.125
-69.675 87.675 1.425
-69.675 87.825 0.975
-69.675 87.825 1.425
-69.675 87.975 0.975
-69.675 88.575 2.325
-69.675 88.725 2.925
-69.675 88.875 2.775
-69.675 89.025 3.225
-69.675 89.325 3.375
-69.675 96.825 2.925
-69.675 99.675 0.975
-69.675 99.825 -2.025
-69.825 100.425 1.275
-69.825 100.425 2.625
-69.825 100.725 0.825
-69.825 100.875 0.825
-69.825 100.875 2.025
-69.825 101.025 1.725
-69.825 101.475 1.125
-69.825 101.475 1.275
-69.825 101.475 1.575
-69.825 101.775 1.275
-69.825 101.775 2.175
-69.825 101.775 2.325
-69.825 101.925 3.075
-69.825 102.075 2.325
-69.825 102.225 1.725
-69.825 102.225 1.875
-69.825 102.225 3.375
-69.825 102.375 1.725
-69.825 102.375 2.025
-69.825 102.375 3.375
-69.825 102.525 2.475
-69.825 102.675 1.725
-69.825 102.675 2.025
-69.825 102.825 1.725
-69.825 102.825 2.025
-69.825 102.825 2.175
-69.825 102.975 1.875
-69.825 102.975 2.025
-69.825 103.125 1.725
-69.825 103.275 0.375
-69.825 103.575 2.775
-69.825 103.575 3.225
-69.825 103.725 3.675
-69.825 103.875 2.925
-69.825 103.875 3.225
-69.825 104.325 -1.575
-69.825 104.325 2.475
-69.825 104.475 2.175
-69.825 104.625 3.075
-69.825 104.625 3.375
-69.825 104.925 3.225
-69.825 105.075 2.025
-69.825 105.225 3.525
-69.825 105.375 -0.675
-69.825 105.675 0.975
-69.825 105.825 0.825
-69.825 105.975 3.675
-69.825 106.125 3.075
-69.825 106.125 3.225
-69.825 106.125 3.825
-69.825 106.425 2.175
-69.825 106.425 2.775
-69.825 106.875 0.075
-69.825 107.175 2.025
-69.825 107.175 2.175
-69.825 107.325 -1.125
-69.825 107.325 0.075
-69.825 107.475 0.225
-69.825 107.475 3.225
-69.825 107.625 2.475
-69.825 107.775 -0.075
-69.825 107.925 -0.075
-69.825 108.225 0.225
-69.825 108.525 1.425
-69.825 108.675 -1.725
-69.825 108.675 0.525
-69.825 108.675 0.975
-69.825 108.675 1.275
-69.825 109.125 0.975
-69.825 109.275 2.625
-69.825 109.425 -0.525
-69.825 109.725 0.375
-69.825 109.725 0.975
-69.825 110.025 0.525
-69.825 110.175 1.125
-69.825 110.325 0.825
-69.825 110.325 1.125
-69.825 110.325 1.575
-69.825 110.325 1.725
-69.825 110.625 -0.675
-69.825 110.625 2.025
-69.825 110.775 -0.825
-69.825 110.775 1.125
-69.825 110.925 -0.225
-69.825 111.075 1.125
-69.825 111.225 -0.225
-69.825 111.225 1.125
-69.825 111.375 2.475
-69.825 111.375 2.775
-69.825 111.825 0.675
-69.825 111.825 2.025
-69.825 111.825 2.325
-69.825 111.975 0.525
-69.825 111.975 0.675
-69.825 111.975 0.975
-69.825 112.275 0.975
-69.825 112.275 3.525
-69.825 112.425 0.225
-69.825 112.575 2.175
-69.825 112.725 2.175
-69.825 112.875 2.025
-69.825 113.025 2.325
-69.825 113.175 3.225
-69.825 113.475 2.325
-69.825 114.525 2.775
-69.825 114.675 2.325
-69.825 114.675 2.475
-69.825 114.675 2.775
-69.825 114.825 3.075
-69.825 114.975 2.625
-69.825 115.725 3.075
-69.825 115.725 3.225
-69.825 115.875 2.475
-69.825 116.025 2.625
-69.825 116.775 3.525
-69.825 116.925 1.575
-69.825 116.925 2.625
-69.825 117.825 1.725
-69.825 117.825 2.625
-69.825 118.425 2.475
-69.825 119.775 2.775
-69.825 120.525 4.125
-69.825 121.125 4.125
-69.825 80.925 0.375
-69.825 80.925 2.775
-69.825 81.225 0.225
-69.825 81.375 1.125
-69.825 81.525 0.375
-69.825 81.525 1.425
-69.825 81.525 1.575
-69.825 81.525 1.875
-69.825 81.525 2.025
-69.825 81.525 2.925
-69.825 81.675 0.825
-69.825 81.675 1.275
-69.825 81.675 1.725
-69.825 82.725 3.075
-69.825 82.875 2.175
-69.825 82.875 3.375
-69.825 83.175 4.275
-69.825 83.625 -0.675
-69.825 83.625 3.375
-69.825 84.075 -0.525
-69.825 84.075 -0.825
-69.825 84.225 -0.525
-69.825 84.225 0.675
-69.825 84.225 1.275
-69.825 84.375 3.375
-69.825 84.525 -0.225
-69.825 84.525 0.075
-69.825 84.525 2.325
-69.825 84.525 3.375
-69.825 84.675 0.225
-69.825 84.675 0.375
-69.825 84.675 0.525
-69.825 84.825 3.075
-69.825 84.825 3.225
-69.825 84.975 -0.375
-69.825 84.975 0.975
-69.825 85.125 2.775
-69.825 85.875 -0.225
-69.825 86.175 1.875
-69.825 86.175 2.025
-69.825 86.175 2.175
-69.825 86.325 1.875
-69.825 86.325 2.025
-69.825 86.475 1.875
-69.825 86.475 2.325
-69.825 86.475 2.925
-69.825 86.625 -1.725
-69.825 86.625 2.175
-69.825 86.775 2.625
-69.825 86.925 2.625
-69.825 87.075 0.975
-69.825 87.225 1.575
-69.825 87.225 1.725
-69.825 87.225 2.025
-69.825 87.375 0.975
-69.825 87.375 2.025
-69.825 87.525 1.725
-69.825 87.525 1.875
-69.825 87.525 2.025
-69.825 87.675 1.125
-69.825 87.675 1.275
-69.825 87.675 1.725
-69.825 87.675 1.875
-69.825 87.825 1.275
-69.825 87.975 0.525
-69.825 88.125 1.575
-69.825 88.275 1.725
-69.825 88.275 1.875
-69.825 88.275 2.025
-69.825 89.175 1.275
-69.825 98.175 2.775
-69.825 99.525 2.025
-69.975 100.125 1.125
-69.975 100.125 2.325
-69.975 100.275 2.175
-69.975 100.575 1.425
-69.975 100.875 1.425
-69.975 101.025 1.575
-69.975 101.025 1.875
-69.975 101.175 1.725
-69.975 101.325 1.275
-69.975 101.475 0.675
-69.975 101.625 1.125
-69.975 101.625 3.375
-69.975 101.775 2.325
-69.975 102.075 1.575
-69.975 102.075 2.025
-69.975 102.075 2.475
-69.975 102.225 1.725
-69.975 102.375 2.775
-69.975 102.525 1.875
-69.975 102.525 2.775
-69.975 102.675 1.725
-69.975 102.675 1.875
-69.975 102.675 2.175
-69.975 102.675 2.625
-69.975 102.675 3.375
-69.975 102.825 2.025
-69.975 102.825 3.525
-69.975 102.975 2.175
-69.975 103.125 1.875
-69.975 103.425 1.875
-69.975 103.425 2.475
-69.975 103.425 2.775
-69.975 103.575 1.275
-69.975 103.725 3.675
-69.975 103.875 3.075
-69.975 104.025 3.525
-69.975 104.325 -1.425
-69.975 104.325 2.025
-69.975 104.325 2.925
-69.975 104.325 3.225
-69.975 105.075 3.225
-69.975 105.375 -0.225
-69.975 105.525 2.175
-69.975 105.525 2.925
-69.975 105.825 2.775
-69.975 105.975 -0.375
-69.975 106.425 -0.675
-69.975 107.025 0.225
-69.975 107.025 3.825
-69.975 107.175 0.075
-69.975 107.325 -0.075
-69.975 107.325 0.075
-69.975 107.325 0.375
-69.975 107.475 0.975
-69.975 107.625 -0.225
-69.975 107.625 -0.525
-69.975 107.625 0.375
-69.975 107.775 -0.075
-69.975 107.775 3.375
-69.975 107.925 -0.075
-69.975 107.925 4.275
-69.975 108.225 2.325
-69.975 108.375 0.225
-69.975 108.675 3.675
-69.975 108.825 3.075
-69.975 108.975 2.475
-69.975 108.975 2.925
-69.975 108.975 3.225
-69.975 109.275 1.125
-69.975 109.725 0.375
-69.975 109.875 0.375
-69.975 110.025 3.675
-69.975 110.025 3.825
-69.975 110.175 1.275
-69.975 110.325 1.125
-69.975 110.475 0.225
-69.975 110.625 -0.825
-69.975 110.775 0.525
-69.975 111.375 3.225
-69.975 111.525 -0.675
-69.975 111.525 2.625
-69.975 111.675 0.225
-69.975 111.675 0.375
-69.975 111.675 2.475
-69.975 111.825 1.875
-69.975 111.825 2.025
-69.975 111.825 2.175
-69.975 111.825 2.475
-69.975 111.825 4.425
-69.975 111.975 2.025
-69.975 111.975 2.175
-69.975 111.975 2.775
-69.975 112.125 0.375
-69.975 112.125 2.175
-69.975 112.125 3.525
-69.975 112.275 0.225
-69.975 112.275 2.625
-69.975 112.425 0.975
-69.975 112.425 2.775
-69.975 112.425 3.375
-69.975 112.575 2.925
-69.975 112.725 0.075
-69.975 112.725 0.375
-69.975 113.025 1.725
-69.975 113.175 2.925
-69.975 113.325 2.775
-69.975 113.475 2.325
-69.975 113.475 3.675
-69.975 113.925 2.025
-69.975 114.375 3.375
-69.975 114.525 2.475
-69.975 114.525 2.925
-69.975 114.675 -1.425
-69.975 114.825 1.875
-69.975 115.575 1.725
-69.975 115.575 2.775
-69.975 115.575 2.925
-69.975 115.725 2.475
-69.975 115.875 1.725
-69.975 115.875 2.025
-69.975 116.025 1.725
-69.975 116.175 2.475
-69.975 116.325 1.575
-69.975 116.775 0.975
-69.975 116.775 2.325
-69.975 116.775 2.925
-69.975 117.075 2.475
-69.975 117.225 2.025
-69.975 117.225 2.325
-69.975 117.825 3.375
-69.975 117.975 1.425
-69.975 117.975 2.475
-69.975 118.125 1.575
-69.975 118.425 1.725
-69.975 118.425 2.175
-69.975 119.475 3.225
-69.975 119.775 2.925
-69.975 120.525 4.125
-69.975 120.825 3.075
-69.975 122.625 1.425
-69.975 122.625 1.725
-69.975 81.225 3.825
-69.975 81.825 1.425
-69.975 81.825 1.575
-69.975 81.825 2.025
-69.975 81.975 2.175
-69.975 81.975 5.175
-69.975 82.125 2.025
-69.975 82.125 2.325
-69.975 82.575 2.925
-69.975 82.725 6.675
-69.975 82.875 0.375
-69.975 83.325 4.275
-69.975 83.625 2.025
-69.975 83.625 3.525
-69.975 83.925 1.275
-69.975 84.225 -0.225
-69.975 84.225 -0.375
-69.975 84.225 0.675
-69.975 84.525 1.875
-69.975 84.675 -0.525
-69.975 84.675 0.075
-69.975 84.675 0.525
-69.975 84.675 0.675
-69.975 84.675 0.825
-69.975 84.675 0.975
-69.975 84.675 2.325
-69.975 84.975 -0.225
-69.975 84.975 -0.375
-69.975 85.125 -0.825
-69.975 85.125 3.075
-69.975 85.275 -0.525
-69.975 85.275 0.225
-69.975 85.425 0.375
-69.975 85.725 0.075
-69.975 86.175 -0.525
-69.975 86.325 2.025
-69.975 86.475 3.375
-69.975 86.625 -0.525
-69.975 86.625 1.875
-69.975 86.775 1.725
-69.975 86.775 2.025
-69.975 87.075 1.875
-69.975 87.225 1.725
-69.975 87.375 1.575
-69.975 87.375 2.025
-69.975 87.525 1.875
-69.975 87.675 1.425
-69.975 87.675 1.875
-69.975 87.825 1.275
-69.975 87.975 2.475
-69.975 88.125 0.975
-69.975 88.125 1.575
-69.975 88.125 2.325
-69.975 88.125 2.625
-69.975 88.275 0.525
-69.975 88.275 1.725
-69.975 88.275 1.875
-69.975 88.275 2.025
-69.975 88.425 1.575
-69.975 88.725 1.275
-69.975 88.725 1.575
-69.975 88.725 1.725
-69.975 89.025 1.425
-69.975 95.625 0.825
-69.975 97.275 2.025
-69.975 97.725 4.575
-69.975 98.025 3.075
-69.975 99.075 2.325
-69.975 99.375 1.725
-69.975 99.975 2.325
-7.125 -0.075 1.575
-7.125 -0.375 0.075
-7.125 -0.375 0.225
-7.125 -0.375 1.275
-7.125 -0.525 -1.875
-7.125 -0.525 1.425
-7.125 -1.125 1.875
-7.125 -2.175 3.075
-7.125 -2.325 1.425
-7.125 -2.775 0.675
-7.125 -2.775 2.025
-7.125 -2.925 0.825
-7.125 -3.375 0.225
-7.125 0.075 0.525
-7.125 0.075 0.825
-7.125 0.075 1.125
-7.125 0.225 0.525
-7.125 0.225 1.725
-7.125 0.375 0.225
-7.125 0.375 0.825
-7.125 0.375 0.975
-7.125 0.375 1.275
-7.125 0.375 1.425
-7.125 0.375 1.575
-7.125 0.525 0.825
-7.125 0.525 0.975
-7.125 0.525 1.275
-7.125 0.675 -0.225
-7.125 0.675 0.675
-7.125 0.675 0.825
-7.125 0.675 0.975
-7.125 0.675 1.125
-7.125 0.675 1.275
-7.125 0.675 1.425
-7.125 0.675 1.575
-7.125 0.675 1.725
-7.125 0.825 0.675
-7.125 0.825 0.975
-7.125 0.825 1.425
-7.125 0.825 1.725
-7.125 0.975 0.375
-7.125 0.975 1.125
-7.125 0.975 1.425
-7.125 0.975 1.875
-7.125 0.975 2.325
-7.125 1.125 0.675
-7.125 1.125 1.725
-7.125 1.125 2.775
-7.125 1.275 0.975
-7.125 1.275 1.275
-7.125 1.275 1.875
-7.125 1.425 -0.075
-7.125 1.425 -1.875
-7.125 1.425 0.375
-7.125 1.425 0.975
-7.125 1.425 1.125
-7.125 1.725 -0.225
-7.125 1.725 -0.375
-7.125 1.725 0.975
-7.125 1.725 1.725
-7.125 1.875 -0.225
-7.125 11.325 0.525
-7.125 2.025 1.275
-7.125 2.025 2.775
-7.125 2.175 2.625
-7.125 2.175 4.425
-7.125 2.325 -0.675
-7.125 2.325 0.375
-7.125 2.475 -0.075
-7.125 2.475 -0.525
-7.125 2.475 0.225
-7.125 2.625 -0.225
-7.125 2.625 -0.525
-7.125 2.625 1.875
-7.125 2.775 1.575
-7.125 2.775 2.325
-7.125 2.925 -0.075
-7.125 2.925 -0.375
-7.125 2.925 0.075
-7.125 2.925 0.825
-7.125 2.925 2.325
-7.125 3.075 -0.825
-7.125 3.075 0.225
-7.125 3.075 0.525
-7.125 3.075 0.675
-7.125 3.225 -0.075
-7.125 3.225 -0.975
-7.125 3.225 0.225
-7.125 3.225 0.525
-7.125 3.375 0.075
-7.125 3.375 0.225
-7.125 3.375 0.525
-7.125 3.375 0.675
-7.125 3.525 -0.225
-7.125 3.525 0.225
-7.125 3.525 0.525
-7.125 3.525 0.675
-7.125 3.525 1.125
-7.125 3.525 1.575
-7.125 3.525 1.875
-7.125 3.675 0.525
-7.125 3.675 0.975
-7.125 3.825 -0.375
-7.125 3.975 -0.075
-7.125 3.975 -0.675
-7.125 4.125 -0.075
-7.125 4.125 -0.375
-7.125 4.125 -0.525
-7.125 4.125 -0.675
-7.125 4.125 -0.975
-7.125 4.125 0.075
-7.125 4.125 0.975
-7.125 4.275 -0.075
-7.125 4.275 0.525
-7.125 4.275 0.825
-7.125 4.275 1.875
-7.125 4.275 2.475
-7.125 4.275 2.925
-7.125 4.425 -0.375
-7.125 4.425 -0.825
-7.125 4.425 -0.975
-7.125 4.425 0.375
-7.125 4.425 0.975
-7.125 4.575 0.525
-7.125 4.575 1.575
-7.125 4.575 1.725
-7.125 4.575 1.875
-7.125 4.725 2.025
-7.125 4.725 2.325
-7.125 4.725 3.075
-7.125 4.875 1.275
-7.125 4.875 1.425
-7.125 4.875 2.175
-7.125 5.025 -3.525
-7.125 5.025 1.575
-7.125 5.025 1.875
-7.125 5.025 2.025
-7.125 5.175 1.425
-7.125 5.325 1.125
-7.125 5.325 1.275
-7.125 5.325 1.425
-7.125 5.325 1.725
-7.125 5.475 0.975
-7.125 5.475 1.125
-7.125 5.475 1.275
-7.125 5.475 1.425
-7.125 5.475 1.575
-7.125 5.475 1.725
-7.125 5.625 -2.025
-7.125 5.625 0.825
-7.125 5.625 1.125
-7.125 5.625 1.275
-7.125 5.625 1.425
-7.125 5.775 0.825
-7.125 5.775 0.975
-7.125 5.775 1.125
-7.125 5.775 1.575
-7.125 5.925 0.525
-7.125 5.925 0.675
-7.125 5.925 1.425
-7.125 6.225 1.275
-7.125 6.225 2.175
-7.125 6.375 1.425
-7.125 6.375 1.725
-7.125 6.375 2.475
-7.125 6.675 1.425
-7.125 6.675 2.625
-7.125 6.825 0.225
-7.125 6.825 2.625
-7.125 6.975 1.725
-7.125 7.125 2.175
-7.125 7.275 -0.375
-7.125 7.425 2.325
-7.125 7.575 2.625
-7.125 7.725 2.325
-7.275 -0.225 -2.625
-7.275 -0.375 1.125
-7.275 -0.375 1.425
-7.275 -0.525 1.125
-7.275 -0.675 0.075
-7.275 -0.675 0.375
-7.275 -0.825 1.575
-7.275 -0.975 2.325
-7.275 -1.125 1.275
-7.275 -1.125 2.625
-7.275 -1.725 -1.275
-7.275 -2.025 2.025
-7.275 -2.175 1.725
-7.275 -2.625 -0.525
-7.275 -2.625 1.425
-7.275 -2.775 1.875
-7.275 0.075 1.275
-7.275 0.225 1.425
-7.275 0.225 2.475
-7.275 0.375 0.675
-7.275 0.375 0.975
-7.275 0.375 1.575
-7.275 0.375 1.875
-7.275 0.525 0.525
-7.275 0.525 0.825
-7.275 0.525 0.975
-7.275 0.525 1.125
-7.275 0.525 1.275
-7.275 0.525 1.425
-7.275 0.525 1.575
-7.275 0.525 1.725
-7.275 0.525 2.025
-7.275 0.675 0.675
-7.275 0.675 0.825
-7.275 0.675 1.425
-7.275 0.675 1.575
-7.275 0.675 1.725
-7.275 0.825 0.225
-7.275 0.825 0.375
-7.275 0.825 0.825
-7.275 0.825 0.975
-7.275 0.825 1.125
-7.275 0.825 1.425
-7.275 0.825 2.025
-7.275 0.825 2.175
-7.275 0.975 0.825
-7.275 0.975 0.975
-7.275 0.975 1.725
-7.275 1.125 0.675
-7.275 1.125 0.825
-7.275 1.125 0.975
-7.275 1.125 1.125
-7.275 1.125 1.425
-7.275 1.125 1.725
-7.275 1.125 1.875
-7.275 1.275 0.975
-7.275 1.275 1.125
-7.275 1.425 0.975
-7.275 1.425 1.275
-7.275 1.425 2.325
-7.275 1.575 0.375
-7.275 1.575 0.825
-7.275 2.325 0.075
-7.275 2.475 -0.375
-7.275 2.475 -0.825
-7.275 2.475 1.875
-7.275 2.625 -0.525
-7.275 2.775 -0.225
-7.275 2.775 -0.525
-7.275 2.775 0.225
-7.275 2.775 0.375
-7.275 2.775 2.325
-7.275 2.925 0.225
-7.275 3.075 -0.675
-7.275 3.075 -0.825
-7.275 3.075 -1.275
-7.275 3.075 -1.575
-7.275 3.075 0.075
-7.275 3.075 2.775
-7.275 3.075 3.075
-7.275 3.075 5.175
-7.275 3.225 0.375
-7.275 3.225 0.675
-7.275 3.375 -0.375
-7.275 3.375 0.075
-7.275 3.375 0.225
-7.275 3.375 0.675
-7.275 3.525 -0.675
-7.275 3.525 0.675
-7.275 3.675 0.075
-7.275 3.675 0.225
-7.275 3.675 0.675
-7.275 3.675 1.125
-7.275 3.825 0.525
-7.275 3.825 0.675
-7.275 3.825 0.975
-7.275 3.975 0.525
-7.275 3.975 1.725
-7.275 3.975 3.525
-7.275 4.125 -0.225
-7.275 4.125 -0.525
-7.275 4.125 0.975
-7.275 4.125 3.525
-7.275 4.275 -0.525
-7.275 4.275 -4.725
-7.275 4.275 1.125
-7.275 4.275 1.425
-7.275 4.275 2.175
-7.275 4.275 2.775
-7.275 4.425 0.675
-7.275 4.575 -3.825
-7.275 4.575 1.125
-7.275 4.575 1.575
-7.275 4.575 2.175
-7.275 4.575 2.475
-7.275 4.725 1.425
-7.275 4.725 1.575
-7.275 4.725 2.025
-7.275 4.725 2.175
-7.275 4.725 2.475
-7.275 4.725 2.625
-7.275 4.875 1.575
-7.275 4.875 1.875
-7.275 4.875 2.025
-7.275 4.875 2.325
-7.275 5.025 1.725
