ply
format ascii 1.0
comment Created by Open3D
element vertex 2384
property double x
property double y
property double z
end_header
-1.425 4.725 1.125
-1.425 4.725 1.725
-1.425 4.725 2.025
-1.425 4.875 0.675
-1.425 4.875 1.725
-1.425 4.875 1.875
-1.425 4.875 2.175
-1.425 4.875 2.325
-1.425 5.025 -3.375
-1.425 5.025 0.675
-1.425 5.025 1.275
-1.425 5.025 1.425
-1.425 5.025 1.575
-1.425 5.025 2.175
-1.425 5.175 0.675
-1.425 5.175 2.175
-1.425 5.325 0.825
-1.425 5.325 1.875
-1.425 5.625 1.875
-1.425 5.775 1.575
-1.425 5.775 1.725
-1.425 5.775 2.175
-1.425 5.925 -0.075
-1.425 5.925 0.075
-1.425 5.925 2.175
-1.425 56.325 -3.375
-1.425 57.975 0.825
-1.425 58.125 -0.375
-1.425 58.425 -0.825
-1.425 58.575 0.225
-1.425 59.025 -0.075
-1.425 59.175 -0.375
-1.425 59.325 -0.375
-1.425 59.325 -0.525
-1.425 59.325 0.225
-1.425 59.475 -0.225
-1.425 59.625 -0.525
-1.425 59.775 -0.375
-1.425 59.775 0.075
-1.425 59.775 0.225
-1.425 59.925 0.075
-1.425 59.925 0.225
-1.425 6.075 -0.075
-1.425 6.075 0.075
-1.425 6.075 0.225
-1.425 6.075 2.475
-1.425 6.225 -1.275
-1.425 6.225 0.075
-1.425 6.225 1.425
-1.425 6.225 1.875
-1.425 6.225 2.475
-1.425 6.375 -0.075
-1.425 6.375 0.075
-1.425 6.375 0.225
-1.425 6.375 1.725
-1.425 6.375 1.875
-1.425 6.525 0.075
-1.425 6.525 2.625
-1.425 6.675 0.225
-1.425 6.675 1.575
-1.425 6.825 0.075
-1.425 6.825 0.225
-1.425 6.975 -0.075
-1.425 6.975 0.225
-1.425 6.975 0.525
-1.425 60.075 0.075
-1.425 60.075 0.225
-1.425 60.675 0.225
-1.425 60.675 0.375
-1.425 61.275 -0.375
-1.425 61.275 0.075
-1.425 61.425 -0.375
-1.425 61.425 -0.525
-1.425 61.425 0.225
-1.425 61.575 -0.225
-1.425 61.575 -0.975
-1.425 61.575 -1.125
-1.425 61.575 -5.625
-1.425 61.875 2.025
-1.425 62.025 -0.375
-1.425 62.025 -0.675
-1.425 62.025 1.575
-1.425 62.025 1.875
-1.425 62.175 0.375
-1.425 62.625 -2.625
-1.425 63.525 0.225
-1.425 63.975 -0.075
-1.425 63.975 0.075
-1.425 63.975 0.975
-1.425 64.125 -0.375
-1.425 64.275 0.075
-1.425 64.575 -0.375
-1.425 64.725 -0.225
-1.425 64.875 -0.225
-1.425 64.875 0.075
-1.425 65.025 -0.075
-1.425 65.025 -0.375
-1.425 65.025 0.225
-1.425 65.475 3.825
-1.425 65.925 0.375
-1.425 68.625 -0.825
-1.425 68.775 0.225
-1.425 68.775 0.375
-1.425 69.225 -0.225
-1.425 69.225 0.075
-1.425 69.375 -0.375
-1.425 69.375 -0.525
-1.425 69.375 0.075
-1.425 69.375 0.225
-1.425 7.125 -0.225
-1.425 7.125 -0.975
-1.425 7.125 0.375
-1.425 7.125 1.875
-1.425 7.275 -0.075
-1.425 7.425 1.875
-1.425 7.575 0.825
-1.425 7.575 1.725
-1.425 7.725 0.225
-1.425 7.725 0.525
-1.425 7.725 0.825
-1.425 7.725 0.975
-1.425 7.875 1.125
-1.425 7.875 1.425
-1.425 70.875 -0.975
-1.425 71.325 -0.225
-1.425 71.775 -2.325
-1.425 8.025 -2.325
-1.425 8.025 0.825
-1.425 8.025 1.125
-1.425 8.025 1.425
-1.425 8.175 0.525
-1.425 8.175 0.675
-1.425 8.175 0.825
-1.425 8.175 0.975
-1.425 8.175 1.125
-1.425 8.175 1.275
-1.425 8.325 0.825
-1.425 8.325 0.975
-1.425 8.325 1.125
-1.425 8.325 1.275
-1.425 8.325 2.775
-1.425 8.475 0.375
-1.425 8.475 0.975
-1.425 8.475 1.275
-1.425 8.475 1.425
-1.425 8.625 -1.275
-1.425 8.625 -1.425
-1.425 8.625 0.225
-1.425 8.625 0.525
-1.425 8.625 0.825
-1.425 8.625 0.975
-1.425 8.625 1.125
-1.425 8.625 1.425
-1.425 8.625 2.325
-1.425 8.625 2.625
-1.425 8.775 0.225
-1.425 8.775 0.825
-1.425 8.775 0.975
-1.425 8.775 1.125
-1.425 8.775 1.875
-1.425 8.775 2.175
-1.425 8.925 0.225
-1.425 8.925 0.825
-1.425 8.925 0.975
-1.425 8.925 1.125
-1.425 8.925 1.575
-1.425 8.925 2.175
-1.425 8.925 2.325
-1.425 9.075 0.825
-1.425 9.075 0.975
-1.425 9.075 1.425
-1.425 9.075 2.025
-1.425 9.075 2.475
-1.425 9.225 0.825
-1.425 9.225 1.275
-1.425 9.375 0.975
-1.425 9.375 2.175
-1.425 9.525 0.675
-1.425 9.525 0.825
-1.425 9.675 0.675
-1.425 9.825 0.975
-1.425 9.975 1.125
-1.425 9.975 1.275
-1.575 -0.075 -0.675
-1.575 -0.075 0.825
-1.575 -0.225 -0.225
-1.575 -0.225 -0.675
-1.575 -0.225 0.525
-1.575 -0.525 -0.525
-1.575 -0.675 -0.075
-1.575 -0.825 -0.225
-1.575 -1.275 -0.075
-1.575 -3.825 2.925
-1.575 -3.825 3.375
-1.575 -5.175 0.975
-1.575 -5.325 1.125
-1.575 -5.325 1.275
-1.575 -5.475 2.625
-1.575 0.075 0.675
-1.575 0.075 0.825
-1.575 0.075 1.125
-1.575 0.075 1.275
-1.575 0.225 -1.425
-1.575 0.225 0.675
-1.575 0.375 -0.675
-1.575 0.375 2.475
-1.575 0.375 2.775
-1.575 0.525 -0.225
-1.575 0.525 1.575
-1.575 0.525 2.625
-1.575 0.525 2.775
-1.575 0.675 -0.675
-1.575 0.675 -0.975
-1.575 0.675 -1.275
-1.575 0.675 2.475
-1.575 0.825 -0.375
-1.575 0.825 -0.675
-1.575 0.825 -0.975
-1.575 0.825 -2.775
-1.575 0.825 0.075
-1.575 0.975 -0.225
-1.575 0.975 -0.525
-1.575 0.975 -0.975
-1.575 0.975 -4.275
-1.575 0.975 0.525
-1.575 1.125 -0.375
-1.575 1.125 -0.975
-1.575 1.275 -0.675
-1.575 1.275 -0.975
-1.575 1.275 0.525
-1.575 1.275 2.025
-1.575 1.425 -0.225
-1.575 1.425 -0.975
-1.575 1.425 -3.075
-1.575 1.425 0.075
-1.575 1.425 0.225
-1.575 1.425 2.175
-1.575 1.575 -0.075
-1.575 1.575 -0.225
-1.575 1.575 -0.375
-1.575 1.575 -0.825
-1.575 1.575 0.525
-1.575 1.575 2.325
-1.575 1.725 -0.375
-1.575 1.725 -0.675
-1.575 1.725 -0.975
-1.575 1.725 -2.025
-1.575 1.725 -3.525
-1.575 1.725 0.375
-1.575 1.725 1.275
-1.575 1.725 1.725
-1.575 1.725 1.875
-1.575 1.725 2.025
-1.575 1.725 2.175
-1.575 1.725 2.325
-1.575 1.725 2.475
-1.575 1.725 3.225
-1.575 1.875 -1.125
-1.575 1.875 -2.175
-1.575 1.875 2.175
-1.575 10.125 0.825
-1.575 10.125 0.975
-1.575 10.125 1.275
-1.575 10.125 3.225
-1.575 10.275 0.675
-1.575 10.275 0.825
-1.575 10.275 1.125
-1.575 10.275 1.275
-1.575 10.275 1.575
-1.575 10.275 3.225
-1.575 10.425 1.425
-1.575 10.425 1.875
-1.575 10.575 0.525
-1.575 10.575 1.575
-1.575 10.575 1.875
-1.575 10.725 1.875
-1.575 10.875 0.975
-1.575 11.025 2.475
-1.575 12.675 2.625
-1.575 13.425 1.575
-1.575 13.575 0.225
-1.575 13.725 0.675
-1.575 13.875 0.525
-1.575 13.875 0.675
-1.575 13.875 0.825
-1.575 13.875 0.975
-1.575 14.025 0.675
-1.575 14.025 1.125
-1.575 14.175 0.825
-1.575 14.175 0.975
-1.575 14.175 1.125
-1.575 14.175 1.275
-1.575 14.325 1.425
-1.575 14.475 0.375
-1.575 14.625 0.825
-1.575 14.625 1.725
-1.575 14.775 0.675
-1.575 14.775 1.575
-1.575 14.775 1.875
-1.575 14.925 0.825
-1.575 15.075 -0.375
-1.575 15.075 0.075
-1.575 15.075 0.225
-1.575 15.075 0.675
-1.575 15.075 0.825
-1.575 15.075 1.125
-1.575 15.075 1.575
-1.575 15.075 2.025
-1.575 15.075 2.175
-1.575 15.225 -0.225
-1.575 15.225 -0.375
-1.575 15.225 0.225
-1.575 15.225 0.825
-1.575 15.225 1.275
-1.575 15.225 1.575
-1.575 15.375 -0.225
-1.575 15.375 0.525
-1.575 15.375 0.825
-1.575 15.375 0.975
-1.575 15.375 1.275
-1.575 15.375 1.425
-1.575 15.525 -0.675
-1.575 15.525 0.075
-1.575 15.525 0.225
-1.575 15.525 0.375
-1.575 15.525 0.825
-1.575 15.525 1.725
-1.575 15.675 -0.075
-1.575 15.675 -0.525
-1.575 15.675 0.225
-1.575 15.675 1.425
-1.575 15.675 2.475
-1.575 15.825 -0.075
-1.575 15.825 -0.675
-1.575 15.825 0.075
-1.575 15.825 2.775
-1.575 15.825 3.375
-1.575 15.825 5.325
-1.575 15.975 -0.225
-1.575 15.975 0.075
-1.575 15.975 0.225
-1.575 15.975 1.275
-1.575 15.975 1.875
-1.575 16.125 -0.075
-1.575 16.125 -0.225
-1.575 16.125 -0.675
-1.575 16.125 0.225
-1.575 16.125 1.725
-1.575 16.125 1.875
-1.575 16.275 0.675
-1.575 16.275 1.875
-1.575 16.275 2.925
-1.575 16.425 1.575
-1.575 16.425 1.725
-1.575 16.425 1.875
-1.575 16.575 1.275
-1.575 16.575 1.725
-1.575 16.575 1.875
-1.575 16.725 1.725
-1.575 16.725 1.875
-1.575 16.875 -0.975
-1.575 16.875 1.575
-1.575 16.875 1.875
-1.575 16.875 2.025
-1.575 17.025 1.425
-1.575 17.025 1.575
-1.575 17.025 1.725
-1.575 17.025 2.025
-1.575 17.175 1.275
-1.575 17.175 1.575
-1.575 17.175 1.725
-1.575 17.175 1.875
-1.575 17.475 0.225
-1.575 17.475 1.425
-1.575 17.475 1.575
-1.575 17.475 1.725
-1.575 17.625 0.375
-1.575 17.625 0.975
-1.575 17.625 1.125
-1.575 17.625 1.275
-1.575 17.625 1.425
-1.575 17.775 0.825
-1.575 17.775 0.975
-1.575 17.775 1.725
-1.575 17.925 0.975
-1.575 18.075 1.125
-1.575 18.075 1.275
-1.575 18.225 0.375
-1.575 18.225 0.825
-1.575 18.225 1.425
-1.575 18.225 1.575
-1.575 19.125 0.375
-1.575 19.125 0.525
-1.575 19.125 0.825
-1.575 19.275 0.375
-1.575 19.275 0.675
-1.575 19.275 0.975
-1.575 19.425 0.825
-1.575 19.725 0.525
-1.575 19.725 1.425
-1.575 2.025 -0.975
-1.575 2.025 -1.275
-1.575 2.025 -1.875
-1.575 2.025 -3.225
-1.575 2.175 -2.925
-1.575 2.175 1.125
-1.575 2.175 1.575
-1.575 2.175 1.875
-1.575 2.325 -2.025
-1.575 2.325 2.175
-1.575 2.325 2.325
-1.575 2.475 -1.425
-1.575 2.475 -2.775
-1.575 2.475 0.675
-1.575 2.475 2.025
-1.575 2.475 2.175
-1.575 2.475 6.075
-1.575 2.625 -0.225
-1.575 2.625 -2.475
-1.575 2.625 1.875
-1.575 2.625 2.025
-1.575 2.625 2.175
-1.575 2.625 6.225
-1.575 2.775 -0.525
-1.575 2.775 -1.725
-1.575 2.775 1.725
-1.575 2.775 2.475
-1.575 2.925 -0.975
-1.575 2.925 -1.725
-1.575 2.925 1.125
-1.575 2.925 1.425
-1.575 2.925 1.875
-1.575 2.925 2.025
-1.575 20.025 -0.225
-1.575 20.025 -0.375
-1.575 20.025 0.975
-1.575 20.175 -0.075
-1.575 20.475 0.375
-1.575 20.625 0.375
-1.575 20.625 0.825
-1.575 20.625 0.975
-1.575 20.775 0.375
-1.575 20.925 -0.375
-1.575 20.925 0.375
-1.575 21.075 0.375
-1.575 21.375 -0.525
-1.575 21.525 -0.525
-1.575 21.525 -0.825
-1.575 21.525 0.375
-1.575 21.675 0.225
-1.575 21.675 0.375
-1.575 21.675 0.975
-1.575 21.825 0.075
-1.575 21.825 0.225
-1.575 21.825 0.375
-1.575 21.975 0.075
-1.575 21.975 0.225
-1.575 21.975 0.525
-1.575 21.975 0.825
-1.575 21.975 2.775
-1.575 22.125 -0.075
-1.575 22.125 0.375
-1.575 22.125 2.775
-1.575 22.425 2.475
-1.575 22.875 0.375
-1.575 23.325 0.975
-1.575 23.475 0.675
-1.575 23.625 0.225
-1.575 23.625 0.375
-1.575 23.625 0.675
-1.575 23.625 2.175
-1.575 23.775 1.425
-1.575 23.775 2.175
-1.575 23.925 0.975
-1.575 24.075 1.725
-1.575 25.575 3.525
-1.575 26.025 2.175
-1.575 26.025 2.925
-1.575 3.075 -0.225
-1.575 3.075 1.575
-1.575 3.075 1.725
-1.575 3.075 1.875
-1.575 3.075 2.025
-1.575 3.075 2.325
-1.575 3.225 -0.075
-1.575 3.225 -0.675
-1.575 3.225 1.425
-1.575 3.225 1.575
-1.575 3.225 1.725
-1.575 3.225 2.175
-1.575 3.375 -0.075
-1.575 3.375 -4.875
-1.575 3.375 0.075
-1.575 3.375 1.275
-1.575 3.375 1.575
-1.575 3.375 1.725
-1.575 3.375 2.025
-1.575 3.375 2.625
-1.575 3.525 -0.075
-1.575 3.525 -0.825
-1.575 3.525 0.075
-1.575 3.525 1.575
-1.575 3.525 1.725
-1.575 3.675 -0.075
-1.575 3.675 -5.325
-1.575 3.675 1.575
-1.575 3.675 1.875
-1.575 3.675 2.025
-1.575 3.825 -0.075
-1.575 3.825 0.075
-1.575 3.825 1.425
-1.575 3.825 1.575
-1.575 3.825 1.725
-1.575 3.975 -0.375
-1.575 3.975 1.125
-1.575 3.975 1.725
-1.575 4.125 0.675
-1.575 4.125 0.975
-1.575 4.125 1.125
-1.575 4.125 1.575
-1.575 4.275 0.525
-1.575 4.275 0.825
-1.575 4.275 0.975
-1.575 4.275 1.125
-1.575 4.275 1.875
-1.575 4.425 -0.375
-1.575 4.425 0.225
-1.575 4.575 -0.375
-1.575 4.575 -3.525
-1.575 4.575 1.725
-1.575 4.725 0.675
-1.575 4.725 1.575
-1.575 4.725 1.725
-1.575 4.875 -1.125
-1.575 4.875 -1.275
-1.575 4.875 2.175
-1.575 4.875 2.475
-1.575 5.025 1.275
-1.575 5.175 1.125
-1.575 5.325 -0.075
-1.575 5.325 0.075
-1.575 5.325 0.375
-1.575 5.325 0.675
-1.575 5.325 1.875
-1.575 5.325 2.475
-1.575 5.475 -0.075
-1.575 5.475 0.525
-1.575 5.475 0.675
-1.575 5.625 0.225
-1.575 5.625 2.475
-1.575 5.775 0.225
-1.575 5.925 0.075
-1.575 5.925 0.225
-1.575 5.925 1.425
-1.575 5.925 1.575
-1.575 5.925 1.875
-1.575 51.975 -0.375
-1.575 53.625 0.375
-1.575 55.725 0.075
-1.575 55.725 0.225
-1.575 55.875 -3.825
-1.575 56.025 -4.125
-1.575 56.925 -2.775
-1.575 57.825 0.375
-1.575 58.125 1.875
-1.575 58.275 -0.225
-1.575 58.725 0.375
-1.575 58.725 2.175
-1.575 58.875 -0.075
-1.575 58.875 -0.675
-1.575 58.875 -1.125
-1.575 58.875 0.075
-1.575 58.875 0.675
-1.575 59.025 -0.075
-1.575 59.025 -0.225
-1.575 59.025 -1.125
-1.575 59.175 -0.525
-1.575 59.175 -0.675
-1.575 59.175 -0.975
-1.575 59.175 -1.125
-1.575 59.175 0.075
-1.575 59.175 0.225
-1.575 59.175 0.675
-1.575 59.325 -1.725
-1.575 59.325 0.075
-1.575 59.325 0.675
-1.575 59.475 -0.075
-1.575 59.475 -0.225
-1.575 59.475 -1.425
-1.575 59.475 -1.725
-1.575 59.475 0.525
-1.575 59.475 0.675
-1.575 59.775 -0.075
-1.575 59.775 -0.225
-1.575 6.075 0.075
-1.575 6.075 1.725
-1.575 6.225 1.875
-1.575 6.225 2.325
-1.575 6.375 1.575
-1.575 6.525 0.825
-1.575 6.825 0.375
-1.575 6.975 0.825
-1.575 6.975 2.625
-1.575 6.975 2.775
-1.575 60.525 -0.375
-1.575 60.675 -0.375
-1.575 60.825 -0.375
-1.575 61.125 -0.225
-1.575 61.275 -0.975
-1.575 61.275 -1.125
-1.575 61.275 0.375
-1.575 61.275 0.975
-1.575 61.425 -0.675
-1.575 61.575 -0.375
-1.575 61.725 -0.075
-1.575 61.725 0.525
-1.575 61.725 2.325
-1.575 62.625 0.675
-1.575 63.075 0.675
-1.575 63.225 0.375
-1.575 63.375 0.375
-1.575 63.675 0.075
-1.575 63.825 -0.675
-1.575 63.975 -0.075
-1.575 63.975 -0.525
-1.575 64.125 -0.225
-1.575 64.125 0.075
-1.575 64.275 0.225
-1.575 64.725 -0.225
-1.575 64.725 0.225
-1.575 65.175 -1.425
-1.575 67.575 -0.375
-1.575 68.175 0.075
-1.575 69.225 -0.075
-1.575 7.125 0.525
-1.575 7.125 1.125
-1.575 7.125 1.275
-1.575 7.275 -2.775
-1.575 7.275 0.375
-1.575 7.275 0.525
-1.575 7.275 0.825
-1.575 7.275 0.975
-1.575 7.275 1.125
-1.575 7.275 1.275
-1.575 7.425 -0.375
-1.575 7.425 -2.475
-1.575 7.425 0.375
-1.575 7.425 0.525
-1.575 7.425 0.825
-1.575 7.425 1.125
-1.575 7.425 1.275
-1.575 7.425 1.875
-1.575 7.575 0.225
-1.575 7.575 0.375
-1.575 7.575 0.675
-1.575 7.575 0.975
-1.575 7.575 1.125
-1.575 7.575 1.425
-1.575 7.725 0.525
-1.575 7.725 0.825
-1.575 7.725 0.975
-1.575 7.725 1.125
-1.575 7.725 1.275
-1.575 7.875 0.375
-1.575 7.875 0.825
-1.575 7.875 0.975
-1.575 7.875 1.425
-1.575 7.875 2.175
-1.575 7.875 3.525
-1.575 70.725 -0.825
-1.575 71.625 -1.875
-1.575 8.025 -0.375
-1.575 8.025 0.225
-1.575 8.025 0.975
-1.575 8.025 1.125
-1.575 8.025 1.275
-1.575 8.175 0.075
-1.575 8.175 0.675
-1.575 8.175 0.825
-1.575 8.175 1.125
-1.575 8.325 0.375
-1.575 8.325 0.825
-1.575 8.325 1.125
-1.575 8.475 0.075
-1.575 8.475 0.675
-1.575 8.475 0.825
-1.575 8.475 2.325
-1.575 8.625 -1.275
-1.575 8.625 0.075
-1.575 8.625 0.825
-1.575 8.625 1.125
-1.575 8.625 7.275
-1.575 8.775 0.825
-1.575 8.775 2.475
-1.575 8.925 -1.125
-1.575 8.925 -2.325
-1.575 8.925 0.675
-1.575 8.925 0.825
-1.575 8.925 1.125
-1.575 8.925 1.875
-1.575 8.925 2.025
-1.575 9.075 -0.525
-1.575 9.075 0.975
-1.575 9.075 1.875
-1.575 9.075 2.925
-1.575 9.225 0.675
-1.575 9.225 0.975
-1.575 9.225 1.125
-1.575 9.225 1.425
-1.575 9.375 0.975
-1.575 9.375 1.125
-1.575 9.375 1.875
-1.575 9.525 0.675
-1.575 9.525 0.975
-1.575 9.525 2.025
-1.575 9.675 -2.775
-1.575 9.675 0.825
-1.575 9.675 0.975
-1.575 9.675 1.425
-1.575 9.675 1.725
-1.575 9.825 0.375
-1.575 9.825 0.975
-1.575 9.825 1.125
-1.575 9.825 1.275
-1.575 9.825 1.425
-1.575 9.825 1.725
-1.575 9.825 1.875
-1.575 9.975 0.975
-1.575 9.975 1.125
-1.575 9.975 1.275
-1.725 -0.075 0.825
-1.725 -0.225 3.675
-1.725 -0.375 -0.375
-1.725 -0.375 -0.525
-1.725 -0.375 1.125
-1.725 -0.525 -0.675
-1.725 -0.825 0.375
-1.725 -1.125 0.075
-1.725 -1.125 0.375
-1.725 -2.775 3.075
-1.725 0.075 -0.375
-1.725 0.075 0.675
-1.725 0.075 0.825
-1.725 0.075 1.125
-1.725 0.075 1.275
-1.725 0.075 2.775
-1.725 0.225 -1.275
-1.725 0.225 0.525
-1.725 0.225 0.675
-1.725 0.225 2.775
-1.725 0.375 -0.675
-1.725 0.375 3.375
-1.725 0.525 0.075
-1.725 0.525 1.725
-1.725 0.675 -1.125
-1.725 0.675 -1.425
-1.725 0.675 -2.325
-1.725 0.675 1.425
-1.725 0.675 2.175
-1.725 0.825 -0.975
-1.725 0.825 2.475
-1.725 0.975 -2.325
-1.725 0.975 1.125
-1.725 0.975 2.325
-1.725 1.125 -1.275
-1.725 1.125 2.175
-1.725 1.125 2.475
-1.725 1.275 -0.225
-1.725 1.275 -0.675
-1.725 1.275 -1.275
-1.725 1.275 -3.975
-1.725 1.275 0.525
-1.725 1.275 2.025
-1.725 1.275 2.175
-1.725 1.275 2.325
-1.725 1.425 -0.375
-1.725 1.425 -0.525
-1.725 1.425 -0.675
-1.725 1.425 1.575
-1.725 1.425 1.725
-1.725 1.425 1.875
-1.725 1.575 -0.075
-1.725 1.575 -0.525
-1.725 1.575 -1.725
-1.725 1.575 1.575
-1.725 1.575 1.725
-1.725 1.575 2.025
-1.725 1.575 2.325
-1.725 1.575 2.625
-1.725 1.725 -0.525
-1.725 1.725 -0.675
-1.725 1.725 -0.975
-1.725 1.725 -2.325
-1.725 1.725 1.875
-1.725 1.875 -0.225
-1.725 1.875 -0.375
-1.725 1.875 -0.675
-1.725 1.875 -0.825
-1.725 1.875 1.125
-1.725 1.875 2.025
-1.725 1.875 2.175
-1.725 10.125 0.825
-1.725 10.125 2.025
-1.725 10.275 0.225
-1.725 10.275 2.475
-1.725 10.275 2.775
-1.725 10.425 0.375
-1.725 10.425 0.525
-1.725 10.425 1.275
-1.725 10.425 2.325
-1.725 10.425 2.475
-1.725 10.575 1.575
-1.725 10.575 1.875
-1.725 10.575 2.175
-1.725 10.575 2.325
-1.725 10.725 1.425
-1.725 10.725 1.575
-1.725 10.875 1.125
-1.725 11.475 1.275
-1.725 12.075 0.225
-1.725 12.225 0.675
-1.725 12.975 -1.725
-1.725 13.425 0.225
-1.725 13.875 0.675
-1.725 14.025 0.525
-1.725 14.025 0.675
-1.725 14.025 1.275
-1.725 14.025 1.425
-1.725 14.175 0.525
-1.725 14.175 1.575
-1.725 14.325 0.525
-1.725 14.325 1.125
-1.725 14.325 6.375
-1.725 14.625 0.975
-1.725 14.775 0.525
-1.725 14.775 1.575
-1.725 14.925 0.975
-1.725 14.925 1.725
-1.725 15.075 -0.825
-1.725 15.075 0.825
-1.725 15.075 0.975
-1.725 15.075 1.575
-1.725 15.075 1.725
-1.725 15.075 2.475
-1.725 15.225 -0.075
-1.725 15.225 0.225
-1.725 15.225 0.375
-1.725 15.225 0.825
-1.725 15.225 1.125
-1.725 15.225 1.875
-1.725 15.375 0.525
-1.725 15.375 0.825
-1.725 15.375 0.975
-1.725 15.375 1.425
-1.725 15.375 1.575
-1.725 15.375 1.725
-1.725 15.525 -0.075
-1.725 15.525 0.075
-1.725 15.525 0.225
-1.725 15.525 0.525
-1.725 15.525 0.825
-1.725 15.525 1.275
-1.725 15.525 2.175
-1.725 15.525 2.925
-1.725 15.675 -0.075
-1.725 15.675 -0.525
-1.725 15.675 0.375
-1.725 15.675 2.625
-1.725 15.825 0.075
-1.725 15.825 2.475
-1.725 15.975 -0.075
-1.725 15.975 -0.225
-1.725 15.975 0.075
-1.725 15.975 0.375
-1.725 15.975 1.575
-1.725 15.975 1.875
-1.725 16.125 -0.375
-1.725 16.125 -0.525
-1.725 16.125 0.675
-1.725 16.125 1.125
-1.725 16.125 1.275
-1.725 16.125 1.725
-1.725 16.125 1.875
-1.725 16.125 3.075
-1.725 16.275 -0.375
-1.725 16.275 0.675
-1.725 16.275 1.875
-1.725 16.425 0.975
-1.725 16.575 -0.075
-1.725 16.575 0.075
-1.725 16.575 0.525
-1.725 16.575 1.875
-1.725 16.575 2.475
-1.725 16.725 0.675
-1.725 16.725 1.575
-1.725 16.725 1.725
-1.725 16.725 4.425
-1.725 16.875 1.575
-1.725 16.875 1.725
-1.725 16.875 2.025
-1.725 16.875 2.175
-1.725 17.025 1.725
-1.725 17.025 1.875
-1.725 17.175 0.675
-1.725 17.175 0.975
-1.725 17.175 1.425
-1.725 17.175 1.875
-1.725 17.175 2.025
-1.725 17.325 0.825
-1.725 17.325 1.725
-1.725 17.325 1.875
-1.725 17.325 2.025
-1.725 17.475 0.375
-1.725 17.475 1.725
-1.725 17.625 1.125
-1.725 17.625 1.575
-1.725 17.775 0.675
-1.725 17.775 1.125
-1.725 17.925 0.825
-1.725 17.925 0.975
-1.725 17.925 1.125
-1.725 18.075 0.675
-1.725 18.075 0.975
-1.725 18.075 1.125
-1.725 18.225 0.825
-1.725 18.525 0.825
-1.725 18.975 0.525
-1.725 19.275 0.075
-1.725 19.275 0.525
-1.725 19.275 0.675
-1.725 19.875 -0.525
-1.725 2.025 -0.075
-1.725 2.025 -0.525
-1.725 2.025 -2.775
-1.725 2.025 -5.475
-1.725 2.025 0.375
-1.725 2.025 1.275
-1.725 2.025 1.725
-1.725 2.025 2.025
-1.725 2.175 -0.075
-1.725 2.175 0.075
-1.725 2.175 2.025
-1.725 2.175 2.475
-1.725 2.325 -0.675
-1.725 2.325 -2.175
-1.725 2.325 2.175
-1.725 2.325 2.325
-1.725 2.325 2.475
-1.725 2.475 -0.375
-1.725 2.475 1.875
-1.725 2.625 0.675
-1.725 2.625 1.725
-1.725 2.775 -0.075
-1.725 2.775 -0.225
-1.725 2.775 -0.375
-1.725 2.775 1.875
-1.725 2.775 2.175
-1.725 2.925 -0.075
-1.725 2.925 1.875
-1.725 2.925 2.025
-1.725 2.925 2.325
-1.725 2.925 3.225
-1.725 20.475 0.525
-1.725 20.475 0.975
-1.725 21.225 -0.525
-1.725 21.225 -0.675
-1.725 21.225 0.675
-1.725 21.375 -0.375
-1.725 21.375 1.575
-1.725 21.525 -0.075
-1.725 21.525 0.225
-1.725 21.525 0.525
-1.725 21.675 -0.225
-1.725 21.675 0.075
-1.725 21.675 0.225
-1.725 21.675 0.375
-1.725 21.675 0.525
-1.725 21.675 1.425
-1.725 21.825 0.525
-1.725 21.975 -0.525
-1.725 21.975 0.075
-1.725 21.975 0.225
-1.725 21.975 0.825
-1.725 21.975 0.975
-1.725 22.125 -0.075
-1.725 22.125 0.225
-1.725 22.275 -0.075
-1.725 22.275 -0.225
-1.725 22.275 0.075
-1.725 22.425 -5.175
-1.725 22.875 0.225
-1.725 22.875 0.675
-1.725 23.325 0.225
-1.725 23.325 0.675
-1.725 23.475 0.675
-1.725 23.475 0.975
-1.725 23.475 1.575
-1.725 23.625 0.675
-1.725 23.625 0.825
-1.725 23.625 0.975
-1.725 23.625 2.175
-1.725 23.775 0.825
-1.725 23.775 0.975
-1.725 23.775 1.125
-1.725 23.775 1.575
-1.725 23.925 1.125
-1.725 23.925 1.425
-1.725 25.575 2.775
-1.725 25.875 3.375
-1.725 26.175 2.175
-1.725 3.075 -0.075
-1.725 3.075 0.075
-1.725 3.075 2.025
-1.725 3.225 -0.075
-1.725 3.225 -0.375
-1.725 3.225 -2.925
-1.725 3.225 0.075
-1.725 3.225 1.875
-1.725 3.225 2.175
-1.725 3.375 -0.075
-1.725 3.375 -0.225
-1.725 3.375 -4.875
-1.725 3.375 1.725
-1.725 3.375 2.175
-1.725 3.375 2.325
-1.725 3.375 2.475
-1.725 3.525 -0.225
-1.725 3.525 -0.375
-1.725 3.525 -4.575
-1.725 3.525 0.075
-1.725 3.525 1.875
-1.725 3.525 2.625
-1.725 3.675 -0.075
-1.725 3.675 -0.225
-1.725 3.675 -0.375
-1.725 3.675 0.075
-1.725 3.675 0.825
-1.725 3.675 1.725
-1.725 3.675 1.875
-1.725 3.675 2.025
-1.725 3.825 -0.225
-1.725 3.825 0.075
-1.725 3.825 0.225
-1.725 3.825 0.375
-1.725 3.825 1.425
-1.725 3.825 2.025
-1.725 3.975 -0.225
-1.725 3.975 -4.275
-1.725 3.975 1.875
-1.725 3.975 2.325
-1.725 4.125 -0.225
-1.725 4.125 0.975
-1.725 4.275 -0.525
-1.725 4.275 -3.975
-1.725 4.275 1.275
-1.725 4.425 -3.975
-1.725 4.425 0.975
-1.725 4.425 2.025
-1.725 4.425 3.975
-1.725 4.575 -0.225
-1.725 4.875 1.575
-1.725 4.875 1.875
-1.725 5.025 0.225
-1.725 5.025 0.525
-1.725 5.175 0.075
-1.725 5.175 0.225
-1.725 5.175 0.375
-1.725 5.175 0.525
-1.725 5.175 0.825
-1.725 5.175 1.425
-1.725 5.325 -2.925
-1.725 5.325 0.375
-1.725 5.325 0.525
-1.725 5.325 3.225
-1.725 5.475 0.225
-1.725 5.475 0.375
-1.725 5.475 0.525
-1.725 5.475 0.825
-1.725 5.475 1.125
-1.725 5.475 2.625
-1.725 5.625 0.075
-1.725 5.625 0.225
-1.725 5.625 0.525
-1.725 5.625 0.675
-1.725 5.625 0.825
-1.725 5.625 1.725
-1.725 5.625 2.625
-1.725 5.775 0.525
-1.725 5.775 0.825
-1.725 5.775 0.975
-1.725 5.775 1.275
-1.725 5.775 1.425
-1.725 5.775 2.475
-1.725 5.925 0.525
-1.725 5.925 0.825
-1.725 5.925 1.275
-1.725 5.925 1.425
-1.725 5.925 2.325
-1.725 5.925 2.925
-1.725 53.775 0.075
-1.725 53.775 0.225
-1.725 54.975 -3.675
-1.725 56.175 -2.775
-1.725 56.775 -2.475
-1.725 56.925 -2.775
-1.725 58.125 -0.225
-1.725 58.125 -0.525
-1.725 58.275 -0.225
-1.725 58.275 -0.375
-1.725 58.425 -0.225
-1.725 58.575 -0.075
-1.725 58.575 -0.525
-1.725 58.575 0.075
-1.725 58.575 0.225
-1.725 58.575 0.525
-1.725 58.725 -0.075
-1.725 58.725 -0.225
-1.725 58.725 -0.375
-1.725 58.725 0.375
-1.725 58.875 -0.075
-1.725 58.875 -0.525
-1.725 58.875 0.075
-1.725 59.025 -0.075
-1.725 59.025 0.075
-1.725 59.175 0.675
-1.725 59.325 -2.175
-1.725 59.325 0.075
-1.725 59.325 0.525
-1.725 59.325 0.675
-1.725 59.325 0.825
-1.725 59.475 -0.075
-1.725 59.625 -0.075
-1.725 59.775 0.075
-1.725 6.075 -2.475
-1.725 6.075 0.525
-1.725 6.075 0.825
-1.725 6.075 1.125
-1.725 6.075 1.275
-1.725 6.075 3.525
-1.725 6.225 0.525
-1.725 6.225 0.825
-1.725 6.225 1.275
-1.725 6.225 1.575
-1.725 6.375 0.525
-1.725 6.375 0.825
-1.725 6.375 1.275
-1.725 6.375 1.425
-1.725 6.525 0.075
-1.725 6.525 0.375
-1.725 6.525 0.525
-1.725 6.525 0.825
-1.725 6.525 0.975
-1.725 6.525 1.125
-1.725 6.525 1.275
-1.725 6.525 1.425
-1.725 6.675 0.525
-1.725 6.675 0.825
-1.725 6.675 0.975
-1.725 6.675 1.275
-1.725 6.675 1.425
-1.725 6.675 2.925
-1.725 6.825 -2.175
-1.725 6.825 0.675
-1.725 6.825 0.825
-1.725 6.825 0.975
-1.725 6.825 1.125
-1.725 6.825 1.275
-1.725 6.825 1.425
-1.725 6.825 2.175
-1.725 6.975 0.525
-1.725 6.975 0.825
-1.725 6.975 0.975
-1.725 6.975 1.125
-1.725 6.975 1.275
-1.725 6.975 1.425
-1.725 60.075 -0.375
-1.725 60.075 -0.525
-1.725 60.375 0.675
-1.725 60.525 -0.825
-1.725 60.825 -0.375
-1.725 60.825 -0.975
-1.725 60.825 -1.125
-1.725 60.825 0.075
-1.725 60.825 0.225
-1.725 60.825 1.875
-1.725 60.975 -0.375
-1.725 61.125 -0.225
-1.725 61.125 -0.375
-1.725 61.125 0.525
-1.725 61.425 -3.675
-1.725 61.725 0.525
-1.725 61.725 0.825
-1.725 62.175 1.425
-1.725 62.325 1.425
-1.725 62.625 -0.375
-1.725 62.925 -0.225
-1.725 62.925 -1.125
-1.725 62.925 -1.275
-1.725 63.075 -0.075
-1.725 63.225 -0.075
-1.725 63.225 -0.375
-1.725 63.225 -2.925
-1.725 63.225 0.075
-1.725 63.375 -0.075
-1.725 63.375 -0.225
-1.725 63.375 0.225
-1.725 63.525 2.775
-1.725 63.825 -0.675
-1.725 63.825 -1.125
-1.725 64.725 2.775
-1.725 68.925 -2.475
-1.725 7.125 0.075
-1.725 7.125 0.225
-1.725 7.125 0.375
-1.725 7.125 0.825
-1.725 7.125 1.125
-1.725 7.125 1.275
-1.725 7.125 1.425
-1.725 7.125 1.875
-1.725 7.125 3.375
-1.725 7.275 0.825
-1.725 7.275 1.425
-1.725 7.275 1.575
-1.725 7.275 1.875
-1.725 7.425 0.225
-1.725 7.425 0.825
-1.725 7.425 0.975
-1.725 7.425 1.275
-1.725 7.425 1.725
-1.725 7.425 2.025
-1.725 7.575 0.075
-1.725 7.575 0.225
-1.725 7.575 0.825
-1.725 7.575 0.975
-1.725 7.575 2.475
-1.725 7.575 3.525
-1.725 7.725 0.075
-1.725 7.725 1.875
-1.725 7.725 2.025
-1.725 7.725 2.475
-1.725 7.875 0.825
-1.725 7.875 1.125
-1.725 70.275 -2.325
-1.725 8.025 0.225
-1.725 8.025 0.675
-1.725 8.025 0.825
-1.725 8.025 0.975
-1.725 8.025 1.875
-1.725 8.025 2.175
-1.725 8.175 0.825
-1.725 8.175 1.725
-1.725 8.175 2.025
-1.725 8.325 0.675
-1.725 8.325 0.825
-1.725 8.325 0.975
-1.725 8.325 2.625
-1.725 8.475 0.525
-1.725 8.475 0.825
-1.725 8.475 0.975
-1.725 8.625 -3.975
-1.725 8.625 0.825
-1.725 8.625 0.975
-1.725 8.625 1.725
-1.725 8.625 1.875
-1.725 8.625 2.025
-1.725 8.625 2.475
-1.725 8.775 -0.375
-1.725 8.775 0.525
-1.725 8.775 0.975
-1.725 8.775 1.125
-1.725 8.775 1.575
-1.725 8.775 2.025
-1.725 8.775 2.475
-1.725 8.925 0.825
-1.725 8.925 0.975
-1.725 8.925 1.275
-1.725 8.925 1.575
-1.725 9.075 -0.675
-1.725 9.075 0.975
-1.725 9.075 1.125
-1.725 9.075 1.275
-1.725 9.075 1.425
-1.725 9.225 0.675
-1.725 9.225 1.125
-1.725 9.225 1.275
-1.725 9.225 1.425
-1.725 9.375 1.125
-1.725 9.375 1.275
-1.725 9.375 1.875
-1.725 9.525 -0.525
-1.725 9.525 -2.625
-1.725 9.525 0.975
-1.725 9.525 1.275
-1.725 9.675 1.725
-1.725 9.675 2.475
-1.725 9.825 0.675
-1.725 9.825 1.125
-1.725 9.825 2.475
-1.725 9.975 -0.075
-1.725 9.975 1.725
-1.875 -0.075 -0.225
-1.875 -0.075 0.825
-1.875 -0.075 3.225
-1.875 -0.225 -0.225
-1.875 -0.225 -0.375
-1.875 -0.375 -0.225
-1.875 -0.525 -0.225
-1.875 -0.525 -0.375
-1.875 -0.525 0.375
-1.875 -2.625 3.075
-1.875 -3.675 2.925
-1.875 -3.675 3.825
-1.875 -3.975 2.775
-1.875 0.075 0.675
-1.875 0.075 0.825
-1.875 0.075 1.275
-1.875 0.075 2.775
-1.875 0.225 0.525
-1.875 0.225 0.675
-1.875 0.225 0.825
-1.875 0.225 1.125
-1.875 0.225 1.275
-1.875 0.375 -0.375
-1.875 0.375 0.675
-1.875 0.375 0.825
-1.875 0.525 -0.675
-1.875 0.525 0.225
-1.875 0.525 0.825
-1.875 0.525 2.625
-1.875 0.675 -0.675
-1.875 0.675 2.625
-1.875 0.825 -0.375
-1.875 0.825 -0.825
-1.875 0.825 -2.175
-1.875 0.825 0.525
-1.875 0.825 0.675
-1.875 0.975 -0.525
-1.875 0.975 -0.675
-1.875 0.975 -1.125
-1.875 0.975 1.425
-1.875 0.975 1.575
-1.875 0.975 3.525
-1.875 1.125 -0.525
-1.875 1.125 -0.675
-1.875 1.275 -0.375
-1.875 1.275 -0.525
-1.875 1.275 -0.675
-1.875 1.275 -0.825
-1.875 1.275 -0.975
-1.875 1.275 0.075
-1.875 1.275 0.525
-1.875 1.275 2.175
-1.875 1.275 2.925
-1.875 1.425 -0.375
-1.875 1.425 -0.525
-1.875 1.425 -0.675
-1.875 1.425 -1.125
-1.875 1.425 0.675
-1.875 1.425 1.875
-1.875 1.425 2.025
-1.875 1.575 -0.075
-1.875 1.575 -0.375
-1.875 1.575 -0.675
-1.875 1.575 -3.075
-1.875 1.575 2.025
-1.875 1.575 2.175
-1.875 1.575 2.325
-1.875 1.725 -0.375
-1.875 1.725 -0.525
-1.875 1.725 -0.675
-1.875 1.725 -0.825
-1.875 1.725 -6.375
-1.875 1.725 0.075
-1.875 1.725 2.175
-1.875 1.875 -0.225
-1.875 1.875 -0.375
-1.875 1.875 -0.675
-1.875 1.875 -0.825
-1.875 1.875 -0.975
-1.875 1.875 1.875
-1.875 1.875 2.175
-1.875 10.125 2.475
-1.875 10.425 1.125
-1.875 10.425 1.275
-1.875 10.575 0.975
-1.875 10.575 1.275
-1.875 10.725 1.275
-1.875 10.875 1.875
-1.875 11.175 -0.975
-1.875 11.775 0.675
-1.875 12.225 -1.875
-1.875 12.225 3.525
-1.875 12.675 2.025
-1.875 13.125 3.225
-1.875 13.275 0.525
-1.875 13.275 2.325
-1.875 13.875 0.525
-1.875 14.025 0.225
-1.875 14.025 0.825
-1.875 14.175 0.375
-1.875 14.175 0.525
-1.875 14.175 0.675
-1.875 14.325 0.825
-1.875 14.325 1.275
-1.875 14.475 0.825
-1.875 14.475 0.975
-1.875 14.475 1.725
-1.875 14.625 0.975
-1.875 14.775 1.275
-1.875 14.925 1.425
-1.875 14.925 1.725
-1.875 14.925 1.875
-1.875 15.075 0.375
-1.875 15.075 0.825
-1.875 15.225 0.225
-1.875 15.225 0.375
-1.875 15.225 0.825
-1.875 15.225 0.975
-1.875 15.225 1.125
-1.875 15.375 -0.825
-1.875 15.375 0.075
-1.875 15.375 0.375
-1.875 15.375 0.825
-1.875 15.375 0.975
-1.875 15.375 1.275
-1.875 15.375 1.575
-1.875 15.375 1.725
-1.875 15.375 2.625
-1.875 15.525 0.075
-1.875 15.525 0.525
-1.875 15.525 0.675
-1.875 15.525 0.825
-1.875 15.525 1.275
-1.875 15.525 1.425
-1.875 15.675 0.525
-1.875 15.675 0.825
-1.875 15.675 2.175
-1.875 15.825 0.375
-1.875 15.825 2.025
-1.875 15.975 -0.225
-1.875 15.975 -0.525
-1.875 15.975 0.075
-1.875 15.975 0.375
-1.875 15.975 0.675
-1.875 16.125 -0.075
-1.875 16.125 -0.225
-1.875 16.125 0.825
-1.875 16.125 1.575
-1.875 16.125 2.025
-1.875 16.125 2.475
-1.875 16.125 4.125
-1.875 16.275 -0.525
-1.875 16.275 -0.675
-1.875 16.275 1.725
-1.875 16.275 1.875
-1.875 16.425 -0.225
-1.875 16.425 1.575
-1.875 16.425 1.875
-1.875 16.575 2.025
-1.875 16.725 0.525
-1.875 16.725 1.575
-1.875 16.725 1.725
-1.875 16.725 2.325
-1.875 16.875 0.225
-1.875 16.875 0.675
-1.875 16.875 1.725
-1.875 17.025 1.725
-1.875 17.025 1.875
-1.875 17.175 -0.075
-1.875 17.175 1.425
-1.875 17.175 1.575
-1.875 17.175 1.725
-1.875 17.325 1.725
-1.875 17.325 2.325
-1.875 17.475 1.725
-1.875 17.475 1.875
-1.875 17.625 -2.325
-1.875 17.625 1.275
-1.875 17.625 1.425
-1.875 17.775 -0.675
-1.875 17.775 0.825
-1.875 17.775 1.275
-1.875 17.775 1.425
-1.875 17.775 1.725
-1.875 17.775 2.475
-1.875 17.925 -1.725
-1.875 17.925 0.825
-1.875 17.925 1.275
-1.875 18.075 0.675
-1.875 18.075 0.825
-1.875 18.075 2.325
-1.875 18.225 0.675
-1.875 18.375 0.975
-1.875 18.525 0.825
-1.875 18.525 1.125
-1.875 18.675 0.975
-1.875 18.825 1.125
-1.875 18.975 0.825
-1.875 18.975 1.725
-1.875 19.125 0.075
-1.875 19.125 0.825
-1.875 2.025 -0.525
-1.875 2.025 0.525
-1.875 2.025 0.675
-1.875 2.025 1.875
-1.875 2.025 2.025
-1.875 2.025 2.625
-1.875 2.175 -0.675
-1.875 2.175 0.675
-1.875 2.175 0.975
-1.875 2.175 1.275
-1.875 2.175 1.875
-1.875 2.175 2.325
-1.875 2.325 -0.525
-1.875 2.325 -2.475
-1.875 2.325 0.675
-1.875 2.325 1.725
-1.875 2.325 1.875
-1.875 2.325 2.025
-1.875 2.475 -0.375
-1.875 2.475 -0.675
-1.875 2.475 -2.025
-1.875 2.475 0.825
-1.875 2.475 1.725
-1.875 2.475 2.025
-1.875 2.475 2.325
-1.875 2.625 -0.075
-1.875 2.625 -0.525
-1.875 2.625 -0.675
-1.875 2.625 0.675
-1.875 2.625 1.275
-1.875 2.625 2.175
-1.875 2.775 -0.225
-1.875 2.775 0.525
-1.875 2.775 1.575
-1.875 2.775 1.875
-1.875 2.925 -0.225
-1.875 2.925 -0.675
-1.875 2.925 0.525
-1.875 20.175 0.075
-1.875 20.175 0.375
-1.875 20.325 -2.025
-1.875 20.325 0.375
-1.875 20.325 0.825
-1.875 20.475 0.375
-1.875 20.625 0.375
-1.875 20.625 3.225
-1.875 20.775 0.225
-1.875 21.225 -0.075
-1.875 21.525 -0.525
-1.875 21.525 0.825
-1.875 21.525 0.975
-1.875 21.675 -0.225
-1.875 21.675 1.875
-1.875 21.825 0.375
-1.875 21.825 0.675
-1.875 21.975 0.675
-1.875 22.125 0.375
-1.875 22.125 0.825
-1.875 22.575 0.225
-1.875 22.575 0.675
-1.875 22.725 0.075
-1.875 23.025 0.075
-1.875 23.025 0.375
-1.875 23.025 0.675
-1.875 23.025 0.825
-1.875 23.175 0.075
-1.875 23.175 0.525
-1.875 23.175 0.675
-1.875 23.175 0.975
-1.875 23.175 2.475
-1.875 23.325 0.525
-1.875 23.475 0.225
-1.875 23.475 1.125
-1.875 23.475 1.425
-1.875 23.625 0.825
-1.875 23.625 1.575
-1.875 27.675 -1.725
-1.875 3.075 0.525
-1.875 3.075 0.675
-1.875 3.075 1.875
-1.875 3.075 2.025
-1.875 3.075 2.175
-1.875 3.225 -0.375
-1.875 3.225 0.375
-1.875 3.225 1.875
-1.875 3.375 -0.075
-1.875 3.375 -5.475
-1.875 3.375 0.675
-1.875 3.375 0.825
-1.875 3.375 1.425
-1.875 3.375 2.025
-1.875 3.525 -0.075
-1.875 3.525 -0.225
-1.875 3.525 -0.375
-1.875 3.525 0.075
-1.875 3.675 -0.075
-1.875 3.675 -0.225
-1.875 3.675 -0.375
-1.875 3.675 0.375
-1.875 3.675 2.025
-1.875 3.675 2.175
-1.875 3.675 2.325
-1.875 3.675 5.325
-1.875 3.825 0.225
-1.875 3.825 2.175
-1.875 3.975 2.025
-1.875 4.125 -0.075
-1.875 4.125 -0.225
-1.875 4.125 -0.375
-1.875 4.125 0.525
-1.875 4.125 2.475
-1.875 4.275 -0.075
-1.875 4.275 -4.125
-1.875 4.275 0.675
-1.875 4.275 0.825
-1.875 4.425 0.825
-1.875 4.425 2.175
-1.875 4.425 2.325
-1.875 4.575 0.075
-1.875 4.575 0.525
-1.875 4.575 0.825
-1.875 4.575 1.275
-1.875 4.575 1.425
-1.875 4.575 2.025
-1.875 4.575 2.175
-1.875 4.725 -0.075
-1.875 4.725 0.375
-1.875 4.725 0.525
-1.875 4.725 0.825
-1.875 4.725 1.125
-1.875 4.725 1.275
-1.875 4.725 1.425
-1.875 4.875 -0.225
-1.875 4.875 0.075
-1.875 4.875 0.375
-1.875 4.875 0.525
-1.875 4.875 0.825
-1.875 4.875 0.975
-1.875 4.875 1.275
-1.875 4.875 1.425
-1.875 5.025 -0.525
-1.875 5.025 0.375
-1.875 5.025 0.525
-1.875 5.025 0.825
-1.875 5.025 1.275
-1.875 5.025 1.425
-1.875 5.175 0.225
-1.875 5.175 0.375
-1.875 5.175 0.525
-1.875 5.175 0.675
-1.875 5.175 0.825
-1.875 5.175 1.275
-1.875 5.175 1.425
-1.875 5.325 0.225
-1.875 5.325 0.375
-1.875 5.325 0.525
-1.875 5.325 0.825
-1.875 5.325 1.275
-1.875 5.325 1.425
-1.875 5.325 1.875
-1.875 5.475 0.525
-1.875 5.475 0.825
-1.875 5.475 0.975
-1.875 5.475 1.125
-1.875 5.475 1.275
-1.875 5.475 1.425
-1.875 5.475 4.725
-1.875 5.625 -2.475
-1.875 5.625 0.825
-1.875 5.625 0.975
-1.875 5.625 1.125
-1.875 5.625 1.275
-1.875 5.625 1.425
-1.875 5.625 2.025
-1.875 5.775 0.075
-1.875 5.775 0.825
-1.875 5.775 0.975
-1.875 5.775 1.125
-1.875 5.925 0.225
-1.875 5.925 0.825
-1.875 5.925 0.975
-1.875 5.925 1.425
-1.875 52.725 0.225
-1.875 53.325 0.375
-1.875 53.625 0.675
-1.875 53.775 -0.525
-1.875 53.925 -0.075
-1.875 54.075 -0.825
-1.875 55.275 0.525
-1.875 55.725 -3.375
-1.875 55.725 -4.875
-1.875 55.875 -3.375
-1.875 56.025 -3.075
-1.875 57.075 -0.675
-1.875 57.525 -0.225
-1.875 57.525 -0.525
-1.875 57.675 -0.225
-1.875 57.975 -0.075
-1.875 58.125 -0.525
-1.875 58.275 -0.375
-1.875 58.275 -0.525
-1.875 58.275 0.075
-1.875 58.275 0.225
-1.875 58.425 -0.075
-1.875 58.425 0.075
-1.875 58.425 0.375
-1.875 58.575 -0.075
-1.875 58.575 -0.225
-1.875 58.725 -0.075
-1.875 58.725 0.075
-1.875 58.875 -0.825
-1.875 58.875 0.075
-1.875 59.025 -0.225
-1.875 59.025 -0.375
-1.875 59.175 0.375
-1.875 59.325 -0.375
-1.875 59.325 0.525
-1.875 59.475 -0.525
-1.875 6.075 0.225
-1.875 6.075 0.375
-1.875 6.075 0.675
-1.875 6.075 0.825
-1.875 6.075 1.125
-1.875 6.225 0.825
-1.875 6.225 1.125
-1.875 6.375 0.825
-1.875 6.375 0.975
-1.875 6.375 1.125
-1.875 6.375 1.725
-1.875 6.525 -2.925
-1.875 6.525 0.075
-1.875 6.525 0.825
-1.875 6.525 1.125
-1.875 6.525 1.275
-1.875 6.675 0.525
-1.875 6.675 0.825
-1.875 6.675 0.975
-1.875 6.675 1.275
-1.875 6.825 0.075
-1.875 6.825 0.675
-1.875 6.825 0.825
-1.875 6.825 1.275
-1.875 6.975 0.675
-1.875 6.975 0.825
-1.875 6.975 1.275
-1.875 6.975 1.725
-1.875 60.225 -0.375
-1.875 60.225 -0.975
-1.875 60.375 -0.375
-1.875 60.525 -0.225
-1.875 60.825 3.225
-1.875 60.975 -0.675
-1.875 61.125 -0.375
-1.875 61.725 0.525
-1.875 61.875 -0.675
-1.875 62.025 -0.375
-1.875 62.175 0.525
-1.875 62.325 -0.375
-1.875 62.325 -0.975
-1.875 62.325 -1.275
-1.875 62.325 0.525
-1.875 62.775 -0.525
-1.875 62.775 -1.725
-1.875 63.075 -0.225
-1.875 63.225 -0.225
-1.875 63.225 -1.125
-1.875 63.375 -0.075
-1.875 63.675 -0.525
-1.875 63.825 -0.675
-1.875 63.825 0.375
-1.875 65.175 -1.125
-1.875 65.175 -1.725
-1.875 68.775 0.675
-1.875 69.225 -0.375
-1.875 69.375 -0.225
-1.875 7.125 0.825
-1.875 7.125 1.125
-1.875 7.125 1.275
-1.875 7.125 1.575
-1.875 7.125 1.875
-1.875 7.125 2.025
-1.875 7.275 0.825
-1.875 7.275 0.975
-1.875 7.275 1.725
-1.875 7.275 4.275
-1.875 7.425 0.825
-1.875 7.425 0.975
-1.875 7.425 1.875
-1.875 7.575 0.825
-1.875 7.575 1.125
-1.875 7.575 1.875
-1.875 7.575 2.025
-1.875 7.575 4.725
-1.875 7.725 0.825
-1.875 7.725 0.975
-1.875 7.725 1.125
-1.875 7.725 1.425
-1.875 7.725 1.725
-1.875 7.725 1.875
-1.875 7.725 2.025
-1.875 7.725 2.475
-1.875 7.875 0.975
-1.875 7.875 1.125
-1.875 7.875 1.575
-1.875 7.875 1.725
-1.875 7.875 2.175
-1.875 8.025 0.975
-1.875 8.025 1.125
-1.875 8.025 1.575
-1.875 8.025 1.875
-1.875 8.025 2.025
-1.875 8.175 0.825
-1.875 8.175 0.975
-1.875 8.175 1.125
-1.875 8.175 1.875
-1.875 8.175 2.025
-1.875 8.175 2.325
-1.875 8.175 4.575
-1.875 8.325 0.075
-1.875 8.325 0.675
-1.875 8.325 0.825
-1.875 8.325 1.125
-1.875 8.325 1.275
-1.875 8.325 1.725
-1.875 8.325 1.875
-1.875 8.325 2.475
-1.875 8.475 0.825
-1.875 8.475 0.975
-1.875 8.475 1.275
-1.875 8.475 1.725
-1.875 8.475 2.025
-1.875 8.625 -3.375
-1.875 8.625 0.825
-1.875 8.625 1.125
-1.875 8.625 1.425
-1.875 8.625 1.725
-1.875 8.625 2.025
-1.875 8.625 4.275
-1.875 8.775 -2.775
-1.875 8.775 0.975
-1.875 8.925 0.975
-1.875 8.925 1.275
-1.875 9.075 1.125
-1.875 9.075 1.275
-1.875 9.075 1.425
-1.875 9.225 0.975
-1.875 9.225 1.125
-1.875 9.225 1.275
-1.875 9.225 1.575
-1.875 9.375 1.125
-1.875 9.375 1.725
-1.875 9.525 1.275
-1.875 9.525 1.425
-1.875 9.675 1.125
-1.875 9.675 1.875
-1.875 9.825 0.975
-1.875 9.825 1.875
-1.875 9.975 0.825
-1.875 9.975 1.575
-10.125 15.975 0.825
-10.125 16.125 0.225
-10.125 16.125 1.875
-10.125 16.725 -0.075
-10.125 16.725 -0.225
-10.125 16.875 -0.225
-10.125 16.875 0.075
-10.125 16.875 0.375
-10.125 16.875 1.275
-10.125 17.025 0.075
-10.125 17.025 1.125
-10.125 17.175 -0.675
-10.125 17.925 -0.825
-10.125 17.925 0.225
-10.125 17.925 1.875
-10.125 18.075 0.975
-10.125 18.225 0.675
-10.125 18.225 0.825
-10.125 18.225 0.975
-10.125 18.225 1.125
-10.125 18.225 1.275
-10.125 18.675 0.375
-10.125 18.825 0.075
-10.125 19.575 0.975
-10.125 19.875 1.425
-10.125 20.175 0.525
-10.125 20.475 1.275
-10.125 21.975 0.675
-10.125 33.525 0.825
-10.125 35.925 -1.575
-10.125 36.225 -0.375
-10.125 36.225 -1.125
-10.125 36.525 -1.125
-10.125 36.525 0.225
-10.125 36.675 0.225
-10.125 36.975 0.375
-10.125 37.275 -0.375
-10.125 37.275 -0.525
-10.125 37.275 0.675
-10.125 37.425 -0.675
-10.125 37.425 0.225
-10.125 37.575 0.225
-10.125 37.575 0.375
-10.125 37.725 0.825
-10.125 37.725 2.025
-10.125 37.875 -0.375
-10.125 37.875 0.075
-10.125 37.875 0.225
-10.125 37.875 0.375
-10.125 37.875 0.525
-10.125 38.025 0.225
-10.125 38.175 -0.075
-10.125 38.325 -0.375
-10.125 38.625 -0.225
-10.125 38.625 -0.675
-10.125 39.075 -1.125
-10.125 39.225 -3.975
-10.125 39.975 -0.375
-10.125 39.975 0.525
-10.125 40.125 -0.225
-10.125 40.125 -0.525
-10.125 40.275 -0.225
-10.125 40.275 -0.525
-10.125 40.425 -0.075
-10.125 40.575 -0.675
-10.125 40.725 1.725
-10.125 40.725 1.875
-10.125 41.025 -0.375
-10.125 41.025 -0.975
-10.125 41.175 0.075
-10.125 41.175 1.875
-10.125 41.325 1.125
-10.125 41.625 -0.225
-10.125 42.375 -2.025
-10.125 42.375 0.375
-10.125 42.825 0.675
-10.125 42.975 -0.075
-10.125 42.975 0.225
-10.125 42.975 0.525
-10.125 43.125 -0.825
-10.125 43.125 0.075
-10.125 43.125 0.225
-10.125 43.125 0.375
-10.125 43.275 0.075
-10.125 43.575 0.075
-10.125 43.725 -0.225
-10.125 43.875 0.075
-10.125 44.025 0.075
-10.125 44.025 0.525
-10.125 44.175 0.825
-10.125 46.575 0.525
-10.125 46.875 0.075
-10.275 15.675 0.975
-10.275 15.825 -1.425
-10.275 15.825 0.975
-10.275 15.975 0.225
-10.275 15.975 0.525
-10.275 16.125 -0.075
-10.275 16.125 0.975
-10.275 16.275 0.675
-10.275 16.275 1.125
-10.275 16.275 1.875
-10.275 16.425 1.275
-10.275 16.725 1.425
-10.275 16.875 -2.775
-10.275 17.025 -1.575
-10.275 17.025 0.675
-10.275 17.175 1.275
-10.275 17.325 -0.375
-10.275 17.325 -1.425
-10.275 18.225 0.375
-10.275 18.225 0.675
-10.275 18.375 -0.225
-10.275 18.975 -0.075
-10.275 19.125 0.825
-10.275 19.125 0.975
-10.275 19.125 1.125
-10.275 19.425 1.125
-10.275 19.575 0.975
-10.275 21.525 1.275
-10.275 31.725 -3.975
-10.275 35.775 -1.425
-10.275 36.375 -0.075
-10.275 36.525 -0.075
-10.275 36.525 -0.375
-10.275 36.525 -0.825
-10.275 36.525 -0.975
-10.275 36.525 0.225
-10.275 36.525 1.125
-10.275 36.675 -0.075
-10.275 36.675 -0.225
-10.275 36.675 -0.825
-10.275 36.675 -0.975
-10.275 36.675 0.075
-10.275 36.675 0.525
-10.275 36.825 -0.075
-10.275 36.825 0.075
-10.275 36.975 0.075
-10.275 37.125 -0.225
-10.275 37.125 0.375
-10.275 37.125 0.525
-10.275 37.275 -0.225
-10.275 37.275 0.525
-10.275 37.425 -0.825
-10.275 37.425 0.075
-10.275 37.575 -0.675
-10.275 37.575 0.225
-10.275 37.575 0.375
-10.275 37.725 0.225
-10.275 38.025 -0.075
-10.275 38.175 -0.225
-10.275 38.625 -0.975
-10.275 38.775 -0.375
-10.275 38.775 0.075
-10.275 39.225 -0.825
-10.275 39.225 0.825
-10.275 39.825 0.075
-10.275 40.125 -0.975
-10.275 40.125 -1.125
-10.275 40.125 0.375
-10.275 40.275 -0.825
-10.275 40.275 0.225
-10.275 40.425 -0.075
-10.275 40.425 -0.225
-10.275 40.425 -0.375
-10.275 40.575 -0.075
-10.275 40.725 -0.975
-10.275 41.025 -1.125
-10.275 42.075 -0.075
-10.275 42.075 0.075
-10.275 42.525 0.675
-10.275 42.525 1.275
-10.275 42.675 -0.675
-10.275 42.675 0.975
-10.275 42.825 -0.075
-10.275 42.825 1.875
-10.275 42.975 -0.075
-10.275 42.975 -0.225
-10.275 43.125 -0.075
-10.275 43.275 3.975
-10.275 43.425 -0.075
-10.275 43.425 0.525
-10.275 43.875 0.675
-10.425 15.525 -0.075
-10.425 15.675 -0.075
-10.425 15.675 1.275
-10.425 15.825 1.875
-10.425 15.975 1.125
-10.425 16.125 0.075
-10.425 16.125 0.225
-10.425 16.125 0.525
-10.425 16.275 0.075
-10.425 16.275 0.525
-10.425 16.275 0.825
-10.425 16.425 0.075
-10.425 16.425 0.525
-10.425 16.425 1.275
-10.425 16.575 -2.475
-10.425 16.575 1.275
-10.425 16.725 1.275
-10.425 17.025 0.225
-10.425 17.325 -1.425
-10.425 17.325 0.075
-10.425 18.375 -0.525
-10.425 18.525 0.375
-10.425 18.675 0.225
-10.425 18.975 0.375
-10.425 19.125 0.525
-10.425 19.125 0.675
-10.425 19.125 0.825
-10.425 19.125 0.975
-10.425 19.425 0.975
-10.425 19.725 1.275
-10.425 20.175 1.275
-10.425 20.625 0.375
-10.425 35.775 -0.075
-10.425 36.075 -0.825
-10.425 36.225 -0.225
-10.425 36.375 0.225
-10.425 36.525 -0.075
-10.425 36.525 -1.575
-10.425 36.525 0.075
-10.425 36.525 0.525
-10.425 36.525 0.675
-10.425 36.675 -0.225
-10.425 36.825 -0.075
-10.425 36.825 0.225
-10.425 36.975 -0.075
-10.425 36.975 -0.525
-10.425 37.125 -0.375
-10.425 37.275 -0.375
-10.425 37.575 0.225
-10.425 37.725 -0.975
-10.425 38.025 -0.825
-10.425 38.025 -1.275
-10.425 38.325 1.125
-10.425 38.475 -0.825
-10.425 38.775 -0.975
-10.425 38.775 1.275
-10.425 39.075 -0.225
-10.425 39.225 -0.225
-10.425 39.375 -0.225
-10.425 39.525 -0.075
-10.425 39.675 -0.525
-10.425 39.825 -0.525
-10.425 39.825 -0.675
-10.425 39.975 -0.675
-10.425 40.125 -0.675
-10.425 40.425 -0.075
-10.425 40.425 -0.825
-10.425 40.875 -5.775
-10.425 41.475 -0.375
-10.425 41.925 -2.175
-10.425 41.925 0.225
-10.425 41.925 0.375
-10.425 42.075 0.525
-10.425 42.225 0.525
-10.425 42.225 0.675
-10.425 42.375 0.375
-10.425 42.375 0.525
-10.425 42.375 0.675
-10.425 42.375 0.825
-10.425 42.525 0.675
-10.425 42.825 -0.075
-10.425 42.825 0.075
-10.425 42.825 0.375
-10.425 42.825 0.675
-10.425 42.825 1.275
-10.425 42.975 1.425
-10.425 42.975 1.725
-10.425 43.125 0.075
-10.425 43.425 0.675
-10.425 43.575 0.825
-10.575 15.675 0.675
-10.575 15.975 1.275
-10.575 15.975 4.125
-10.575 16.125 0.825
-10.575 16.275 0.225
-10.575 16.275 0.975
-10.575 16.425 0.825
-10.575 16.575 0.525
-10.575 16.875 -2.625
-10.575 17.175 0.075
-10.575 17.175 0.525
-10.575 17.175 0.675
-10.575 17.325 -1.575
-10.575 17.325 0.075
-10.575 18.975 0.525
-10.575 19.125 0.675
-10.575 19.125 0.975
-10.575 19.275 0.825
-10.575 19.275 0.975
-10.575 19.425 0.525
-10.575 19.725 0.825
-10.575 19.725 0.975
-10.575 20.175 1.425
-10.575 20.325 1.575
-10.575 20.475 0.525
-10.575 29.325 0.075
-10.575 34.875 -0.675
-10.575 35.775 0.975
-10.575 36.075 -0.225
-10.575 36.225 -0.825
-10.575 36.375 -0.525
-10.575 36.375 -0.975
-10.575 36.525 0.225
-10.575 36.825 -0.225
-10.575 36.975 -2.475
-10.575 37.275 -0.075
-10.575 37.875 -1.125
-10.575 38.025 -1.125
-10.575 38.025 0.075
-10.575 38.325 -0.525
-10.575 38.475 -0.075
-10.575 38.625 -0.075
-10.575 39.075 0.075
-10.575 39.075 1.575
-10.575 39.375 -0.225
-10.575 39.375 0.225
-10.575 39.375 0.375
-10.575 39.525 -0.225
-10.575 39.675 -0.075
-10.575 39.675 -0.675
-10.575 39.675 -0.825
-10.575 39.975 -0.675
-10.575 39.975 -0.825
-10.575 40.125 -0.375
-10.575 40.125 -0.525
-10.575 40.275 -0.675
-10.575 41.175 -0.675
-10.575 41.175 0.075
-10.575 41.175 0.825
-10.575 41.325 0.075
-10.575 41.475 -0.825
-10.575 41.475 0.825
-10.575 41.625 0.675
-10.575 41.775 -0.075
-10.575 41.925 -0.375
-10.575 41.925 -0.675
-10.575 41.925 -0.825
-10.575 41.925 0.525
-10.575 42.075 0.525
-10.575 42.225 0.375
-10.575 42.225 0.675
-10.575 42.525 0.825
-10.575 42.825 0.225
-10.575 43.875 -2.325
-10.575 44.025 0.825
-10.725 15.525 0.675
-10.725 15.675 0.675
-10.725 15.825 -0.375
-10.725 15.825 0.825
-10.725 16.275 0.675
-10.725 16.575 0.825
-10.725 16.725 0.825
-10.725 17.025 -0.225
-10.725 17.175 -0.375
-10.725 17.175 -0.675
-10.725 17.175 0.075
-10.725 17.325 -0.375
-10.725 17.775 0.375
-10.725 18.825 0.225
-10.725 18.825 0.525
-10.725 18.975 -1.725
-10.725 19.125 0.525
-10.725 19.125 0.675
-10.725 19.275 0.975
-10.725 19.575 0.375
-10.725 19.575 0.975
-10.725 19.575 1.875
-10.725 19.725 0.225
-10.725 19.725 0.825
-10.725 19.725 0.975
-10.725 19.875 -0.075
-10.725 19.875 0.525
-10.725 20.025 0.825
-10.725 20.025 0.975
-10.725 20.175 0.675
-10.725 23.325 4.125
-10.725 33.975 -1.575
-10.725 35.775 0.225
-10.725 35.775 0.375
-10.725 35.775 0.525
-10.725 35.925 -0.075
-10.725 35.925 0.525
-10.725 35.925 1.425
-10.725 36.075 -0.525
-10.725 36.075 0.375
-10.725 36.075 1.125
-10.725 36.225 0.375
-10.725 36.375 -0.675
-10.725 36.375 0.375
-10.725 36.525 -0.975
-10.725 37.875 0.075
-10.725 38.025 -0.825
-10.725 38.025 0.075
-10.725 38.175 -0.225
-10.725 38.175 0.075
-10.725 38.325 0.375
-10.725 38.475 0.225
-10.725 38.775 -0.075
-10.725 38.775 0.525
-10.725 38.925 -0.075
-10.725 38.925 -0.675
-10.725 38.925 0.375
-10.725 38.925 1.425
-10.725 39.075 0.225
-10.725 39.225 0.075
-10.725 39.225 1.575
-10.725 39.375 -1.125
-10.725 39.675 -0.375
-10.725 39.675 -1.875
-10.725 40.125 -1.875
-10.725 40.425 -0.075
-10.725 40.725 0.975
-10.725 41.175 -0.225
-10.725 41.175 -0.675
-10.725 41.175 -0.825
-10.725 41.175 1.725
-10.725 41.325 -0.375
-10.725 41.325 -0.825
-10.725 41.325 0.825
-10.725 41.475 0.225
-10.725 41.475 0.375
-10.725 41.625 0.375
-10.725 41.625 0.525
-10.725 41.775 0.375
-10.725 41.775 0.525
-10.725 41.775 0.675
-10.725 41.925 0.675
-10.725 42.075 0.225
-10.725 42.225 0.225
-10.725 42.225 0.675
-10.725 43.575 4.575
-10.725 44.925 0.675
-10.875 15.225 0.825
-10.875 15.825 0.975
-10.875 15.975 0.675
-10.875 16.125 1.125
-10.875 16.275 -1.125
-10.875 17.025 0.075
-10.875 17.175 0.225
-10.875 17.475 -2.925
-10.875 17.625 -0.825
-10.875 17.775 0.075
-10.875 17.775 0.525
-10.875 18.225 -0.525
-10.875 18.525 -0.075
-10.875 18.825 0.525
-10.875 18.975 0.525
-10.875 19.125 0.525
-10.875 19.125 1.275
-10.875 19.275 0.975
-10.875 19.425 0.525
-10.875 19.575 0.375
-10.875 19.575 0.975
-10.875 19.725 0.675
-10.875 20.025 0.825
-10.875 33.225 -0.525
-10.875 33.375 1.125
-10.875 34.575 1.725
-10.875 35.175 0.675
-10.875 35.325 -1.725
-10.875 35.325 0.525
-10.875 35.325 0.825
-10.875 35.475 0.375
-10.875 35.475 0.525
-10.875 35.625 1.125
-10.875 35.775 -0.825
-10.875 35.925 -0.975
-10.875 35.925 0.075
-10.875 35.925 0.225
-10.875 36.075 -0.675
-10.875 36.525 1.425
-10.875 36.675 -0.825
-10.875 37.275 0.075
-10.875 37.275 0.975
-10.875 37.425 0.075
-10.875 37.725 0.225
-10.875 37.875 -1.425
-10.875 37.875 0.525
-10.875 38.175 -1.575
-10.875 38.175 0.525
-10.875 38.175 0.675
-10.875 38.325 -0.375
-10.875 38.325 0.075
-10.875 38.625 -0.675
-10.875 38.925 -3.675
-10.875 39.075 -0.075
-10.875 39.075 -0.375
-10.875 39.075 -0.975
-10.875 39.525 -0.525
-10.875 39.525 -0.675
-10.875 40.125 -3.225
-10.875 40.125 0.375
-10.875 40.125 1.125
-10.875 40.275 0.375
-10.875 40.875 -0.675
-10.875 40.875 -0.825
-10.875 41.025 -0.525
-10.875 41.025 -0.675
-10.875 41.175 -0.825
-10.875 41.325 0.525
-10.875 41.475 0.375
-10.875 41.775 0.375
-10.875 41.775 0.825
-11.025 15.225 0.525
-11.025 15.975 -2.025
-11.025 16.125 0.675
-11.025 16.275 1.125
-11.025 16.425 0.975
-11.025 16.575 1.275
-11.025 16.875 2.025
-11.025 17.025 0.525
-11.025 17.325 -0.375
-11.025 17.475 -0.525
-11.025 17.625 -0.675
-11.025 17.775 -0.375
-11.025 18.075 0.675
-11.025 18.225 -0.525
-11.025 18.225 3.825
-11.025 18.675 0.225
-11.025 18.675 0.525
-11.025 18.675 0.675
