ply
format ascii 1.0
comment Created by Open3D
element vertex 2381
property double x
property double y
property double z
end_header
24.825 15.525 -0.375
24.825 15.525 -0.675
24.825 15.525 0.375
24.825 15.525 0.675
24.825 15.675 -0.075
24.825 15.675 -0.225
24.825 15.675 0.075
24.825 15.675 0.225
24.825 15.675 0.525
24.825 15.675 0.675
24.825 15.675 0.825
24.825 15.675 1.275
24.825 15.825 0.075
24.825 15.825 0.225
24.825 15.825 0.375
24.825 15.825 0.525
24.825 15.825 1.125
24.825 15.975 -0.075
24.825 15.975 0.825
24.825 16.125 0.075
24.825 16.125 0.825
24.825 16.275 0.075
24.825 16.275 0.225
24.825 16.275 0.525
24.825 16.275 0.675
24.825 16.425 -0.375
24.825 16.425 0.375
24.825 16.575 0.075
24.825 16.575 0.225
24.825 16.725 0.225
24.825 16.875 -0.525
24.825 16.875 0.525
24.825 17.025 0.825
24.825 18.375 0.225
24.825 18.525 -0.375
24.825 18.675 2.175
24.825 18.825 -0.225
24.825 18.825 -0.675
24.825 18.975 -0.525
24.825 19.125 -0.225
24.825 19.125 -0.375
24.825 19.125 -0.525
24.825 19.125 0.675
24.825 19.125 1.125
24.825 19.125 1.425
24.825 19.275 -0.075
24.825 19.275 -0.225
24.825 19.275 0.675
24.825 19.275 0.825
24.825 19.275 1.575
24.825 19.425 -0.225
24.825 19.425 0.675
24.825 19.575 -0.075
24.825 19.575 0.675
24.825 19.725 -0.225
24.825 19.725 0.375
24.825 19.725 0.675
24.825 19.725 2.775
24.825 19.875 -0.675
24.825 19.875 0.825
24.825 19.875 0.975
24.825 2.025 -0.075
24.825 2.025 -0.375
24.825 2.175 -0.075
24.825 2.325 0.075
24.825 2.325 0.375
24.825 2.475 -0.225
24.825 2.475 0.525
24.825 2.625 -0.075
24.825 2.625 -0.225
24.825 2.625 -0.375
24.825 2.625 -0.525
24.825 2.625 0.825
24.825 2.775 -0.375
24.825 2.775 -0.825
24.825 2.775 0.375
24.825 20.025 -0.225
24.825 20.025 -0.375
24.825 20.475 0.375
24.825 21.975 -0.225
24.825 21.975 3.675
24.825 22.725 -0.375
24.825 22.875 0.375
24.825 23.025 0.075
24.825 23.775 0.675
24.825 23.925 0.975
24.825 3.225 -0.225
24.825 3.225 -0.675
24.825 3.375 -0.375
24.825 6.375 0.225
24.975 -0.675 1.275
24.975 -0.975 0.825
24.975 -0.975 1.275
24.975 -0.975 1.425
24.975 -0.975 1.725
24.975 -1.125 0.975
24.975 -1.125 1.425
24.975 -1.275 1.725
24.975 -1.425 1.125
24.975 -1.425 1.725
24.975 -1.425 2.775
24.975 -1.875 1.575
24.975 -2.025 2.475
24.975 1.275 -0.225
24.975 1.725 0.525
24.975 1.875 0.525
24.975 11.925 -1.725
24.975 14.925 0.075
24.975 14.925 0.825
24.975 15.075 -3.825
24.975 15.075 1.275
24.975 15.225 -0.225
24.975 15.225 0.525
24.975 15.225 0.825
24.975 15.375 -0.225
24.975 15.375 -0.525
24.975 15.375 0.075
24.975 15.375 0.675
24.975 15.375 0.975
24.975 15.525 -0.225
24.975 15.525 -0.375
24.975 15.525 0.075
24.975 15.525 0.375
24.975 15.675 0.225
24.975 15.675 0.525
24.975 15.825 -0.075
24.975 15.825 0.375
24.975 15.825 0.525
24.975 15.825 0.675
24.975 15.825 0.825
24.975 15.825 1.125
24.975 15.975 -0.225
24.975 15.975 0.675
24.975 15.975 0.825
24.975 15.975 0.975
24.975 16.125 -0.075
24.975 16.125 -0.225
24.975 16.125 0.225
24.975 16.125 0.375
24.975 16.125 0.525
24.975 16.125 1.125
24.975 16.275 -0.225
24.975 16.275 -0.375
24.975 16.275 0.675
24.975 16.425 0.225
24.975 16.425 0.375
24.975 16.575 0.675
24.975 16.875 0.375
24.975 17.325 -3.525
24.975 18.675 -0.525
24.975 18.825 -0.075
24.975 18.825 -0.225
24.975 18.825 -0.375
24.975 18.825 0.075
24.975 18.975 -0.675
24.975 18.975 -1.125
24.975 19.125 -0.225
24.975 19.125 0.675
24.975 19.125 1.125
24.975 19.125 1.275
24.975 19.275 -0.375
24.975 19.275 -1.875
24.975 19.275 0.675
24.975 19.425 2.025
24.975 19.575 0.675
24.975 2.025 -0.825
24.975 2.025 -1.425
24.975 2.925 0.375
24.975 20.025 0.375
24.975 21.075 4.275
24.975 22.275 -0.825
24.975 22.425 0.225
24.975 22.575 1.125
24.975 22.875 0.975
24.975 23.175 -0.225
24.975 3.375 -0.075
25.125 -0.825 2.025
25.125 -0.975 0.675
25.125 -0.975 0.975
25.125 -1.125 0.975
25.125 -1.275 0.975
25.125 -1.425 1.575
25.125 -1.425 1.875
25.125 -1.725 1.425
25.125 -1.725 1.575
25.125 -2.025 1.275
25.125 -2.175 2.775
25.125 1.875 0.525
25.125 1.875 0.825
25.125 14.325 0.675
25.125 15.075 -0.525
25.125 15.075 0.825
25.125 15.225 -0.525
25.125 15.225 0.075
25.125 15.225 0.225
25.125 15.225 0.525
25.125 15.225 0.825
25.125 15.375 -0.675
25.125 15.375 0.225
25.125 15.525 0.375
25.125 15.525 0.825
25.125 15.525 0.975
25.125 15.675 0.075
25.125 15.675 0.225
25.125 15.675 0.675
25.125 15.675 0.975
25.125 15.975 0.225
25.125 15.975 1.125
25.125 16.125 -0.375
25.125 16.125 0.075
25.125 16.275 -0.075
25.125 16.425 0.075
25.125 16.425 0.825
25.125 16.575 0.825
25.125 18.375 -0.825
25.125 18.825 0.075
25.125 18.975 -0.675
25.125 19.125 1.125
25.125 19.125 1.425
25.125 19.275 -0.975
25.125 19.275 0.225
25.125 19.275 0.675
25.125 19.425 0.075
25.125 19.425 0.525
25.125 19.425 0.675
25.125 19.425 2.925
25.125 19.575 0.525
25.125 19.725 -0.675
25.125 19.725 0.675
25.125 19.875 -0.075
25.125 2.175 -0.225
25.125 2.175 -0.375
25.125 2.175 0.525
25.125 2.475 -0.225
25.125 2.625 -0.825
25.125 2.625 0.075
25.125 2.925 -0.975
25.125 20.025 0.225
25.125 20.025 1.725
25.125 20.325 -1.125
25.125 20.325 0.525
25.125 20.475 0.825
25.125 22.425 0.225
25.125 22.575 0.075
25.125 22.575 0.225
25.125 22.725 2.025
25.125 22.875 -0.225
25.125 22.875 1.275
25.125 23.175 -0.825
25.125 23.325 0.975
25.125 23.475 1.125
25.125 3.225 1.875
25.125 3.375 -0.375
25.275 -0.075 0.975
25.275 -0.525 0.525
25.275 -0.975 3.375
25.275 -0.975 3.675
25.275 -1.275 1.725
25.275 -1.275 2.025
25.275 -1.275 2.175
25.275 -1.425 1.575
25.275 -1.425 1.725
25.275 -1.425 2.025
25.275 -1.425 2.175
25.275 -1.575 2.025
25.275 -1.575 2.175
25.275 -2.025 2.775
25.275 -2.175 1.875
25.275 1.275 -0.375
25.275 1.725 0.975
25.275 14.925 -0.075
25.275 15.075 -0.375
25.275 15.075 -0.825
25.275 15.075 0.375
25.275 15.075 1.125
25.275 15.225 -0.375
25.275 15.225 1.275
25.275 15.375 -0.225
25.275 15.375 -3.975
25.275 15.375 0.375
25.275 15.375 0.825
25.275 15.375 0.975
25.275 15.375 1.275
25.275 15.375 2.325
25.275 15.525 0.375
25.275 15.525 0.525
25.275 15.675 0.525
25.275 15.675 0.675
25.275 15.675 3.675
25.275 15.825 0.075
25.275 15.825 0.225
25.275 15.825 0.675
25.275 15.825 3.225
25.275 15.975 -0.075
25.275 15.975 -0.825
25.275 16.125 0.375
25.275 16.125 0.975
25.275 16.275 -0.075
25.275 16.275 -0.375
25.275 16.575 -0.375
25.275 16.575 -0.825
25.275 17.475 0.525
25.275 18.375 -0.825
25.275 18.375 -2.625
25.275 18.675 -0.075
25.275 18.675 1.275
25.275 18.825 -0.075
25.275 18.825 -0.225
25.275 18.975 -0.075
25.275 18.975 -0.225
25.275 18.975 0.225
25.275 19.125 -0.825
25.275 19.125 1.125
25.275 19.275 -0.075
25.275 19.425 0.675
25.275 19.425 1.725
25.275 19.575 0.225
25.275 19.575 0.675
25.275 19.875 -0.825
25.275 2.025 -0.075
25.275 2.025 0.375
25.275 2.175 -0.675
25.275 2.175 0.525
25.275 2.175 0.675
25.275 2.175 1.725
25.275 2.325 -0.225
25.275 2.325 0.375
25.275 2.325 1.425
25.275 2.475 -0.225
25.275 2.475 -0.525
25.275 2.475 1.125
25.275 2.625 -0.075
25.275 2.625 0.075
25.275 2.925 -0.375
25.275 20.175 -0.225
25.275 21.675 -0.075
25.275 22.275 0.375
25.275 22.275 0.675
25.275 22.425 0.825
25.275 22.425 1.275
25.275 22.725 0.525
25.275 22.875 0.975
25.275 22.875 2.175
25.275 23.025 0.225
25.275 23.025 0.375
25.275 23.475 0.375
25.275 23.475 0.825
25.275 23.625 1.125
25.275 3.075 -0.075
25.425 -0.975 1.575
25.425 -1.125 0.975
25.425 -1.125 1.425
25.425 -1.125 1.725
25.425 -1.125 1.875
25.425 -1.275 0.825
25.425 -1.275 0.975
25.425 -1.275 1.425
25.425 -1.425 2.925
25.425 -1.725 0.975
25.425 -1.725 2.625
25.425 -1.875 2.325
25.425 -2.175 1.575
25.425 1.125 -0.225
25.425 1.425 0.675
25.425 1.725 0.525
25.425 1.725 0.675
25.425 14.475 1.575
25.425 14.775 -0.375
25.425 14.775 0.225
25.425 15.075 -0.075
25.425 15.075 0.225
25.425 15.075 0.675
25.425 15.225 -0.225
25.425 15.225 0.375
25.425 15.375 -0.225
25.425 15.375 0.225
25.425 15.375 0.375
25.425 15.375 0.525
25.425 15.375 2.025
25.425 15.525 0.375
25.425 15.525 0.675
25.425 15.675 -0.075
25.425 15.675 -0.225
25.425 15.675 0.075
25.425 15.675 0.375
25.425 15.675 0.675
25.425 15.675 1.275
25.425 15.825 -0.825
25.425 15.825 0.525
25.425 15.825 1.125
25.425 15.825 1.275
25.425 15.975 -0.075
25.425 15.975 -1.725
25.425 15.975 0.075
25.425 16.125 -1.725
25.425 16.125 0.225
25.425 16.125 0.525
25.425 16.275 0.225
25.425 16.275 0.675
25.425 16.425 -0.675
25.425 18.075 -0.975
25.425 18.525 0.225
25.425 18.525 1.725
25.425 18.675 -0.375
25.425 18.675 1.125
25.425 18.825 -0.225
25.425 18.825 -0.375
25.425 18.825 2.175
25.425 18.975 -0.375
25.425 18.975 -0.675
25.425 19.125 -0.075
25.425 19.125 -0.825
25.425 19.125 0.675
25.425 19.275 -0.075
25.425 19.275 -0.375
25.425 19.275 0.825
25.425 19.275 1.275
25.425 19.275 1.425
25.425 19.425 -0.225
25.425 19.575 0.675
25.425 19.725 0.675
25.425 19.875 0.825
25.425 2.025 -0.525
25.425 2.025 -1.275
25.425 2.025 0.525
25.425 2.325 0.525
25.425 2.325 1.575
25.425 2.475 0.225
25.425 2.475 0.975
25.425 2.475 1.125
25.425 2.775 -0.975
25.425 20.025 0.525
25.425 20.175 -0.375
25.425 20.175 -1.575
25.425 20.175 0.375
25.425 22.275 0.075
25.425 23.175 1.125
25.425 3.225 -0.225
25.425 4.275 4.275
25.575 -0.975 1.875
25.575 -1.125 0.975
25.575 -1.275 3.975
25.575 -1.425 0.375
25.575 -1.725 0.975
25.575 -1.725 2.025
25.575 -1.875 1.575
25.575 -1.875 2.475
25.575 -1.875 2.925
25.575 1.425 0.675
25.575 1.875 -0.075
25.575 1.875 -0.225
25.575 1.875 0.525
25.575 14.625 0.975
25.575 14.775 -0.375
25.575 14.775 0.675
25.575 15.225 0.075
25.575 15.225 0.225
25.575 15.225 0.375
25.575 15.225 0.675
25.575 15.225 0.825
25.575 15.225 1.125
25.575 15.375 -0.225
25.575 15.375 0.225
25.575 15.375 0.375
25.575 15.375 0.975
25.575 15.375 2.175
25.575 15.525 -0.075
25.575 15.525 0.075
25.575 15.525 0.225
25.575 15.525 0.975
25.575 15.675 0.225
25.575 15.675 0.375
25.575 15.675 1.725
25.575 15.825 1.875
25.575 15.975 -0.525
25.575 15.975 0.075
25.575 15.975 0.225
25.575 15.975 0.375
25.575 15.975 0.675
25.575 16.125 -0.075
25.575 16.125 0.075
25.575 16.125 0.225
25.575 16.425 -0.375
25.575 18.375 -0.525
25.575 18.375 0.075
25.575 18.525 -0.375
25.575 18.525 -0.825
25.575 18.675 1.425
25.575 18.825 -0.375
25.575 18.975 -0.075
25.575 18.975 -0.675
25.575 18.975 0.825
25.575 19.125 0.375
25.575 19.275 -0.225
25.575 19.275 -0.825
25.575 19.275 -1.125
25.575 19.275 0.675
25.575 19.275 1.125
25.575 19.275 1.275
25.575 19.425 0.675
25.575 19.575 0.375
25.575 19.725 -0.675
25.575 19.725 0.675
25.575 2.025 0.525
25.575 2.025 0.675
25.575 2.175 -0.375
25.575 2.175 1.425
25.575 2.325 -0.075
25.575 2.325 0.525
25.575 2.475 0.225
25.575 2.475 0.525
25.575 2.475 0.975
25.575 2.625 -0.375
25.575 2.925 -0.375
25.575 20.025 -0.675
25.575 20.175 0.825
25.575 20.325 0.075
25.575 22.575 0.375
25.575 22.575 3.075
25.575 22.725 2.325
25.575 23.175 0.525
25.575 23.325 0.825
25.575 23.475 0.825
25.575 23.475 1.725
25.575 3.075 -1.425
25.575 3.075 0.075
25.575 5.625 0.525
25.725 -1.275 0.675
25.725 -1.275 0.975
25.725 -1.425 1.275
25.725 -1.425 1.425
25.725 -1.425 2.025
25.725 -1.575 1.425
25.725 -1.575 3.075
25.725 -1.725 1.275
25.725 -1.725 1.725
25.725 -1.725 1.875
25.725 -2.025 0.825
25.725 0.075 -0.375
25.725 0.075 0.375
25.725 1.275 0.675
25.725 1.725 0.825
25.725 1.725 2.175
25.725 1.875 1.125
25.725 14.625 0.225
25.725 14.775 0.375
25.725 14.775 0.675
25.725 14.925 0.525
25.725 14.925 0.825
25.725 14.925 1.575
25.725 15.075 0.375
25.725 15.075 0.825
25.725 15.075 0.975
25.725 15.075 1.125
25.725 15.225 0.225
25.725 15.225 0.525
25.725 15.225 1.425
25.725 15.375 0.075
25.725 15.375 0.825
25.725 15.375 1.575
25.725 15.375 2.925
25.725 15.525 -0.075
25.725 15.525 0.675
25.725 15.525 0.825
25.725 15.525 0.975
25.725 15.675 -0.075
25.725 15.675 0.375
25.725 15.675 0.975
25.725 15.675 1.125
25.725 15.825 -0.075
25.725 15.825 0.075
25.725 15.825 0.225
25.725 15.825 0.525
25.725 15.825 0.825
25.725 15.825 2.175
25.725 15.975 -0.075
25.725 15.975 0.075
25.725 15.975 0.225
25.725 15.975 0.525
25.725 15.975 2.475
25.725 16.125 0.525
25.725 16.125 0.675
25.725 16.275 0.225
25.725 16.425 0.075
25.725 16.575 -0.075
25.725 16.575 0.375
25.725 17.925 0.225
25.725 18.225 -0.525
25.725 18.375 -0.525
25.725 18.675 -0.225
25.725 18.675 -0.375
25.725 18.675 -0.525
25.725 18.825 0.225
25.725 18.975 -0.225
25.725 19.125 0.675
25.725 19.275 -0.075
25.725 19.275 0.825
25.725 19.275 1.275
25.725 19.275 1.425
25.725 19.425 -0.375
25.725 19.425 0.675
25.725 19.575 -0.225
25.725 19.875 0.675
25.725 2.025 0.525
25.725 2.025 0.675
25.725 2.175 0.525
25.725 2.325 -0.375
25.725 2.325 1.425
25.725 2.475 -0.375
25.725 2.475 0.675
25.725 2.625 -0.375
25.725 2.625 -1.275
25.725 2.625 0.525
25.725 2.775 -0.075
25.725 2.925 -1.575
25.725 20.325 0.825
25.725 20.775 1.725
25.725 22.275 0.225
25.725 22.725 0.375
25.725 22.875 0.225
25.725 22.875 1.875
25.725 23.025 0.525
25.725 23.625 1.575
25.725 3.225 -0.675
25.725 3.225 1.875
25.725 3.375 -0.075
25.725 5.475 0.525
25.875 -0.975 2.475
25.875 -1.125 0.975
25.875 -1.275 2.025
25.875 -1.575 1.275
25.875 -1.575 2.025
25.875 -1.725 0.825
25.875 -1.725 2.325
25.875 -1.725 3.225
25.875 -1.875 2.625
25.875 -1.875 2.925
25.875 -1.875 3.675
25.875 -2.025 1.275
25.875 -2.025 3.375
25.875 -2.475 1.425
25.875 0.225 -3.975
25.875 14.325 -0.075
25.875 14.475 1.125
25.875 14.775 -0.225
25.875 14.925 0.225
25.875 14.925 0.675
25.875 15.075 0.525
25.875 15.075 0.675
25.875 15.225 -0.525
25.875 15.225 0.075
25.875 15.225 0.675
25.875 15.375 -0.225
25.875 15.375 0.075
25.875 15.375 0.375
25.875 15.525 -0.375
25.875 15.525 1.275
25.875 15.525 2.175
25.875 15.675 0.825
25.875 15.675 1.425
25.875 15.825 0.375
25.875 15.825 0.525
25.875 15.825 0.675
25.875 15.825 0.975
25.875 15.975 -0.225
25.875 15.975 0.675
25.875 15.975 1.125
25.875 15.975 1.275
25.875 16.125 -0.075
25.875 16.125 -0.525
25.875 16.275 -0.375
25.875 16.275 0.075
25.875 16.425 -0.525
25.875 16.425 -0.675
25.875 16.425 0.525
25.875 16.575 -0.225
25.875 17.325 4.125
25.875 18.525 -0.675
25.875 18.825 -0.225
25.875 18.825 0.375
25.875 18.825 0.525
25.875 19.125 -0.975
25.875 19.275 -0.825
25.875 19.275 0.225
25.875 19.275 0.675
25.875 19.275 0.825
25.875 19.275 1.125
25.875 19.275 1.275
25.875 19.275 1.575
25.875 19.425 0.675
25.875 19.425 1.725
25.875 19.575 0.825
25.875 19.725 0.675
25.875 2.175 -0.675
25.875 2.175 0.525
25.875 2.325 -1.575
25.875 2.475 -0.225
25.875 2.475 1.125
25.875 2.625 -0.375
25.875 2.625 0.225
25.875 2.775 -0.825
25.875 2.775 0.375
25.875 20.175 -0.225
25.875 20.325 0.075
25.875 20.775 -2.175
25.875 22.725 -0.375
25.875 22.875 0.075
25.875 23.625 1.275
25.875 23.775 0.675
25.875 3.075 0.675
25.875 5.775 0.225
25.875 5.775 0.375
25.875 5.775 0.825
26.025 -0.825 -2.475
26.025 -1.125 2.025
26.025 -1.575 1.425
26.025 -1.875 2.175
26.025 -1.875 3.975
26.025 -2.025 2.325
26.025 0.225 3.075
26.025 0.225 3.225
26.025 1.125 0.825
26.025 14.625 0.675
26.025 14.925 0.825
26.025 15.075 0.525
26.025 15.075 0.675
26.025 15.075 1.125
26.025 15.075 1.725
26.025 15.225 -0.375
26.025 15.225 0.225
26.025 15.225 0.675
26.025 15.375 -0.075
26.025 15.375 0.225
26.025 15.375 0.375
26.025 15.375 0.975
26.025 15.525 0.525
26.025 15.525 0.975
26.025 15.675 0.675
26.025 15.675 1.725
26.025 15.825 0.075
26.025 15.825 0.525
26.025 15.825 0.825
26.025 16.125 -0.825
26.025 16.125 0.075
26.025 16.125 0.225
26.025 16.275 -0.225
26.025 16.275 -0.525
26.025 16.275 0.075
26.025 16.575 0.075
26.025 16.575 0.525
26.025 16.875 0.375
26.025 18.525 -0.675
26.025 18.675 -0.525
26.025 18.675 0.075
26.025 18.675 0.375
26.025 18.675 2.475
26.025 18.825 0.375
26.025 18.825 0.525
26.025 18.975 -0.375
26.025 19.125 0.525
26.025 19.125 0.675
26.025 19.275 0.075
26.025 19.275 0.525
26.025 19.275 0.675
26.025 19.275 1.275
26.025 19.425 -0.075
26.025 19.425 0.675
26.025 19.425 1.425
26.025 19.425 1.875
26.025 19.575 -0.075
26.025 19.575 0.075
26.025 19.725 0.675
26.025 19.875 0.525
26.025 2.025 -0.525
26.025 2.175 -0.225
26.025 2.175 -0.375
26.025 2.325 -1.725
26.025 2.325 0.525
26.025 2.325 1.575
26.025 2.475 0.825
26.025 2.475 0.975
26.025 2.475 1.125
26.025 2.625 -0.525
26.025 2.775 0.525
26.025 20.025 0.675
26.025 20.775 6.075
26.025 22.125 0.825
26.025 22.425 0.825
26.025 22.575 0.675
26.025 22.575 1.425
26.025 22.875 0.525
26.025 23.025 0.825
26.025 23.025 0.975
26.025 23.175 0.825
26.025 3.075 -0.525
26.025 3.375 -0.075
26.025 3.375 -0.375
26.025 3.375 -0.525
26.175 -0.825 2.325
26.175 -1.575 2.025
26.175 -1.575 2.625
26.175 -1.725 1.275
26.175 -1.725 2.175
26.175 -1.875 1.725
26.175 -1.875 1.875
26.175 -1.875 3.525
26.175 0.075 -4.275
26.175 0.525 -4.425
26.175 1.275 -0.075
26.175 1.275 -0.225
26.175 1.275 -0.375
26.175 1.425 -0.225
26.175 1.425 -0.375
26.175 1.425 0.225
26.175 1.425 0.825
26.175 1.575 0.675
26.175 1.725 2.025
26.175 1.875 -0.375
26.175 1.875 0.225
26.175 14.475 1.875
26.175 14.775 0.225
26.175 14.775 0.825
26.175 14.775 1.725
26.175 15.075 0.675
26.175 15.075 1.125
26.175 15.225 -0.375
26.175 15.225 0.225
26.175 15.225 0.375
26.175 15.225 0.525
26.175 15.225 0.825
26.175 15.375 0.975
26.175 15.375 1.875
26.175 15.525 0.525
26.175 15.675 0.525
26.175 15.675 0.675
26.175 15.675 1.125
26.175 15.825 -0.075
26.175 15.975 0.225
26.175 16.125 -0.375
26.175 16.125 0.225
26.175 16.125 0.825
26.175 16.275 -0.075
26.175 16.275 0.225
26.175 16.425 -0.375
26.175 16.425 -0.975
26.175 16.425 0.375
26.175 16.425 0.525
26.175 16.575 0.975
26.175 16.725 0.225
26.175 17.175 0.975
26.175 17.325 1.575
26.175 18.825 -0.375
26.175 18.825 0.225
26.175 18.975 -0.075
26.175 18.975 -0.375
26.175 19.275 0.675
26.175 19.275 0.825
26.175 19.275 1.125
26.175 19.275 1.275
26.175 19.275 1.575
26.175 19.575 0.375
26.175 19.575 0.825
26.175 19.725 -0.525
26.175 19.725 0.675
26.175 19.875 0.675
26.175 2.175 -0.075
26.175 2.175 -0.525
26.175 2.475 -0.075
26.175 2.475 -0.375
26.175 2.475 0.225
26.175 2.475 0.675
26.175 2.775 -0.375
26.175 2.775 -0.825
26.175 2.775 0.825
26.175 20.025 0.225
26.175 20.025 0.375
26.175 20.025 0.525
26.175 20.175 0.975
26.175 20.175 2.475
26.175 20.625 -1.275
26.175 21.225 5.625
26.175 22.275 -0.075
26.175 22.425 0.075
26.175 22.575 0.825
26.175 23.025 2.775
26.175 23.175 1.425
26.175 23.475 2.475
26.175 23.775 0.675
26.175 3.075 -0.075
26.175 3.225 -1.125
26.175 5.925 1.425
26.325 -0.075 -3.375
26.325 -0.525 -1.125
26.325 -0.975 0.675
26.325 -1.575 0.975
26.325 -1.875 0.825
26.325 -1.875 2.175
26.325 -2.025 1.575
26.325 -2.175 0.225
26.325 1.125 0.075
26.325 1.425 -0.075
26.325 1.425 -0.525
26.325 1.425 0.675
26.325 1.575 -0.225
26.325 1.725 0.225
26.325 1.725 0.525
26.325 1.725 0.675
26.325 1.875 2.475
26.325 13.875 1.875
26.325 15.225 0.525
26.325 15.375 0.525
26.325 15.375 0.975
26.325 15.525 0.225
26.325 15.525 0.375
26.325 15.525 0.525
26.325 15.525 0.675
26.325 15.525 0.825
26.325 15.675 -0.075
26.325 15.675 -0.375
26.325 15.675 0.075
26.325 15.675 0.375
26.325 15.675 0.825
26.325 15.825 -0.075
26.325 15.825 0.225
26.325 15.975 -0.375
26.325 15.975 0.225
26.325 15.975 0.525
26.325 15.975 0.675
26.325 16.125 0.075
26.325 16.275 0.525
26.325 16.425 0.075
26.325 16.425 0.525
26.325 16.425 0.675
26.325 16.575 0.075
26.325 16.575 0.225
26.325 16.575 0.525
26.325 16.725 0.225
26.325 16.725 0.825
26.325 16.725 1.125
26.325 17.025 0.375
26.325 17.175 0.675
26.325 18.675 2.625
26.325 18.975 -0.225
26.325 18.975 -1.575
26.325 19.125 -0.075
26.325 19.125 0.675
26.325 19.125 1.125
26.325 19.275 -0.225
26.325 19.275 -0.525
26.325 19.275 0.825
26.325 19.275 1.425
26.325 19.425 -0.075
26.325 19.425 -0.375
26.325 19.425 0.075
26.325 19.425 0.675
26.325 19.425 0.825
26.325 19.425 1.575
26.325 19.575 -0.225
26.325 19.725 -0.375
26.325 19.725 0.525
26.325 19.725 0.675
26.325 19.875 -0.375
26.325 19.875 0.675
26.325 2.025 -0.375
26.325 2.175 -0.075
26.325 2.175 -0.375
26.325 2.175 -0.525
26.325 2.175 -0.975
26.325 2.325 -0.225
26.325 2.475 0.675
26.325 2.625 -0.225
26.325 2.775 -0.075
26.325 20.175 0.075
26.325 20.175 0.225
26.325 20.475 0.975
26.325 22.425 0.375
26.325 22.575 0.225
26.325 22.725 0.525
26.325 23.025 0.375
26.325 23.775 1.875
26.325 3.225 -0.825
26.325 3.675 -1.125
26.325 6.225 -0.075
26.475 -1.125 1.275
26.475 -1.275 0.375
26.475 -1.275 1.425
26.475 -1.575 1.425
26.475 -1.575 2.025
26.475 -1.575 2.775
26.475 -1.725 1.725
26.475 -1.725 1.875
26.475 -1.875 0.675
26.475 -1.875 1.425
26.475 -2.175 2.475
26.475 0.975 0.225
26.475 1.575 -0.225
26.475 1.575 0.675
26.475 1.725 0.075
26.475 1.875 0.675
26.475 14.775 0.075
26.475 14.775 1.275
26.475 15.225 1.275
26.475 15.525 0.075
26.475 15.525 0.825
26.475 15.675 0.375
26.475 15.675 0.675
26.475 15.825 0.225
26.475 15.825 0.825
26.475 15.975 0.075
26.475 15.975 0.675
26.475 15.975 1.275
26.475 16.125 0.375
26.475 16.425 -0.075
26.475 16.425 -0.525
26.475 16.425 0.075
26.475 16.425 0.525
26.475 16.575 0.225
26.475 16.575 0.375
26.475 16.575 0.525
26.475 16.875 0.525
26.475 16.875 0.825
26.475 17.025 -0.225
26.475 17.025 0.975
26.475 17.325 -3.075
26.475 18.075 3.225
26.475 18.375 -0.675
26.475 18.525 0.375
26.475 18.675 -0.375
26.475 18.675 2.475
26.475 18.825 0.075
26.475 18.975 -0.975
26.475 19.125 -0.075
26.475 19.125 -0.225
26.475 19.125 -0.525
26.475 19.275 0.675
26.475 19.275 1.275
26.475 19.425 -0.225
26.475 19.425 -0.525
26.475 19.425 -0.675
26.475 19.425 0.075
26.475 19.425 0.825
26.475 19.425 1.575
26.475 19.425 1.725
26.475 19.575 -0.375
26.475 19.575 0.825
26.475 19.725 -0.525
26.475 19.725 0.075
26.475 19.725 0.675
26.475 19.875 -0.375
26.475 19.875 -0.675
26.475 19.875 0.675
26.475 2.025 -0.225
26.475 2.175 -0.225
26.475 2.175 -0.525
26.475 2.175 -0.675
26.475 2.175 -0.825
26.475 2.325 -0.975
26.475 20.025 0.675
26.475 22.425 0.075
26.475 22.425 0.975
26.475 22.575 -0.075
26.475 22.575 0.225
26.475 22.575 0.825
26.475 22.725 -0.825
26.475 22.725 0.825
26.475 22.875 1.875
26.475 23.025 1.125
26.475 23.175 1.125
26.475 23.325 2.775
26.475 3.075 -0.375
26.475 5.775 0.075
26.625 -0.225 -3.825
26.625 -0.225 -3.975
26.625 -0.225 0.825
26.625 -1.125 1.875
26.625 -1.275 -3.075
26.625 -1.425 0.525
26.625 -1.575 1.425
26.625 -1.575 1.725
26.625 -1.725 0.675
26.625 -1.875 1.575
26.625 -1.875 1.875
26.625 -1.875 2.025
26.625 -2.175 1.275
26.625 0.075 -2.175
26.625 0.225 -3.525
26.625 0.675 0.975
26.625 1.125 -0.975
26.625 1.275 0.075
26.625 1.575 0.675
26.625 1.725 0.675
26.625 1.875 0.675
26.625 15.825 0.225
26.625 15.825 0.375
26.625 16.125 0.825
26.625 16.125 1.275
26.625 16.275 -0.525
26.625 16.425 0.525
26.625 16.425 0.975
26.625 16.575 -0.525
26.625 16.575 0.225
26.625 16.575 0.825
26.625 16.725 -0.375
26.625 16.875 0.375
26.625 17.025 0.525
26.625 17.025 0.675
26.625 17.175 -0.525
26.625 18.375 -0.375
26.625 18.525 -0.375
26.625 18.525 0.375
26.625 18.825 1.425
26.625 18.975 -0.075
26.625 19.125 0.075
26.625 19.125 0.525
26.625 19.125 0.825
26.625 19.275 -0.225
26.625 19.275 0.825
26.625 19.275 1.275
26.625 19.275 1.575
26.625 19.425 -0.225
26.625 19.425 -0.375
26.625 19.425 0.825
26.625 19.425 1.875
26.625 19.575 -0.375
26.625 19.725 0.075
26.625 19.725 0.675
26.625 19.875 0.975
26.625 2.025 -0.525
26.625 2.025 -1.425
26.625 2.025 0.675
26.625 2.025 1.725
26.625 2.175 1.275
26.625 2.175 1.425
26.625 2.325 -0.225
26.625 2.475 -0.525
26.625 20.025 0.825
26.625 20.025 0.975
26.625 20.325 -0.075
26.625 20.325 0.675
26.625 22.275 0.975
26.625 22.425 1.425
26.625 22.575 0.375
26.625 22.575 0.975
26.625 22.575 2.025
26.625 22.875 -0.225
26.625 23.325 0.675
26.625 23.325 0.825
26.625 23.475 1.275
26.625 3.075 -0.375
26.625 3.225 -0.675
26.625 5.925 1.275
26.775 -1.125 0.375
26.775 -1.425 0.525
26.775 -1.425 0.975
26.775 -1.425 1.425
26.775 -1.575 1.125
26.775 -1.575 1.275
26.775 -1.575 1.425
26.775 -1.725 0.675
26.775 -1.725 0.975
26.775 -1.725 1.125
26.775 -1.725 1.425
26.775 -1.725 2.025
26.775 -1.725 2.325
26.775 -1.875 1.275
26.775 -1.875 2.175
26.775 -2.025 1.425
26.775 -2.025 2.625
26.775 1.575 0.825
26.775 1.725 0.075
26.775 1.725 0.675
26.775 1.875 -0.225
26.775 1.875 -0.825
26.775 15.525 0.375
26.775 15.825 -0.075
26.775 15.825 -0.375
26.775 15.825 0.675
26.775 15.825 0.825
26.775 15.975 0.225
26.775 15.975 0.525
26.775 16.125 0.525
26.775 16.275 1.275
26.775 16.425 0.225
26.775 17.475 -0.225
26.775 17.625 0.075
26.775 18.525 -0.825
26.775 19.125 -0.825
26.775 19.125 -0.975
26.775 19.125 0.825
26.775 19.125 3.675
26.775 19.275 -0.225
26.775 19.275 0.375
26.775 19.275 0.825
26.775 19.275 1.125
26.775 19.275 1.275
26.775 19.425 -0.375
26.775 19.425 0.075
26.775 19.425 0.825
26.775 19.425 1.575
26.775 19.425 1.725
26.775 19.575 -0.075
26.775 19.575 -0.225
26.775 19.575 0.075
26.775 19.575 0.825
26.775 19.725 -0.375
26.775 19.725 0.525
26.775 19.725 0.675
26.775 19.725 0.825
26.775 19.875 0.225
26.775 2.025 0.675
26.775 2.025 1.575
26.775 2.175 1.725
26.775 2.325 -0.375
26.775 2.325 -0.525
26.775 2.325 1.125
26.775 2.625 -0.225
26.775 2.775 -0.675
26.775 2.925 2.025
26.775 20.025 -0.225
26.775 20.175 -0.225
26.775 20.175 1.275
26.775 20.475 0.525
26.775 22.575 0.675
26.775 22.725 2.175
26.775 22.875 1.425
26.775 22.875 1.575
26.775 23.025 0.675
26.775 3.075 -0.225
26.925 -0.825 -3.375
26.925 -1.125 -0.975
26.925 -1.275 1.875
26.925 -1.425 1.275
26.925 -1.425 2.475
26.925 -1.575 -1.425
26.925 -1.575 0.675
26.925 -1.575 1.275
26.925 -1.575 2.775
26.925 -1.725 0.225
26.925 -1.725 0.825
26.925 -1.725 3.225
26.925 -1.875 2.475
26.925 -2.025 0.975
26.925 -2.175 2.475
26.925 -2.175 2.625
26.925 0.225 -2.925
26.925 0.225 1.425
26.925 0.525 -4.275
26.925 1.125 -0.375
26.925 1.425 -0.825
26.925 1.425 0.825
26.925 1.875 -0.225
26.925 1.875 -0.375
26.925 1.875 0.675
26.925 15.525 0.675
26.925 15.825 1.875
26.925 16.125 -0.075
26.925 16.125 0.525
26.925 16.425 0.675
26.925 17.175 0.075
26.925 17.175 0.675
26.925 17.625 -0.225
26.925 17.625 1.425
26.925 17.775 -0.825
26.925 17.775 0.075
26.925 18.075 -0.225
26.925 18.225 -0.525
26.925 18.525 -0.525
26.925 18.825 -0.675
26.925 19.125 -0.075
26.925 19.275 -0.075
26.925 19.275 -0.375
26.925 19.275 -1.125
26.925 19.275 0.825
26.925 19.275 1.125
26.925 19.275 1.275
26.925 19.425 -0.375
26.925 19.425 0.825
26.925 19.425 1.875
26.925 19.575 -0.825
26.925 19.575 0.525
26.925 19.575 0.825
26.925 19.725 0.675
26.925 19.725 0.825
26.925 19.875 -0.225
26.925 19.875 -0.525
26.925 19.875 0.075
26.925 19.875 0.675
26.925 2.025 -0.075
26.925 2.175 0.675
26.925 2.175 1.125
26.925 2.325 -0.225
26.925 2.325 -0.375
26.925 2.325 0.375
26.925 2.325 0.675
26.925 2.325 1.125
26.925 2.625 -0.525
26.925 20.025 0.525
26.925 20.325 0.225
26.925 20.325 0.675
26.925 20.775 -1.575
26.925 22.275 0.225
26.925 22.575 2.175
26.925 23.475 -1.425
26.925 5.775 1.425
27.075 -0.375 -3.075
27.075 -0.525 -3.525
27.075 -0.825 -1.425
27.075 -0.975 0.675
27.075 -1.275 2.175
27.075 -1.275 3.525
27.075 -1.425 0.975
27.075 -1.425 1.425
27.075 -1.425 1.575
27.075 -1.425 2.025
27.075 -1.725 -0.525
27.075 -1.875 0.825
27.075 -1.875 1.875
27.075 -2.025 0.975
27.075 0.075 -4.725
27.075 1.275 0.825
27.075 1.425 0.675
27.075 1.575 0.825
27.075 1.725 0.825
27.075 15.825 -0.225
27.075 15.825 0.075
27.075 15.825 0.675
27.075 15.825 0.825
27.075 16.125 -0.375
27.075 16.425 -0.975
27.075 16.875 0.525
27.075 17.025 -0.075
27.075 17.025 0.375
27.075 17.025 1.425
27.075 17.175 -0.675
27.075 17.175 -0.825
27.075 17.175 0.375
27.075 17.175 0.825
27.075 17.325 -0.075
27.075 17.325 -1.425
27.075 17.325 0.525
27.075 17.325 0.675
27.075 17.475 0.375
27.075 17.475 0.975
27.075 17.625 0.375
27.075 18.675 -0.225
27.075 18.825 -0.675
27.075 18.975 -0.825
27.075 19.125 -0.075
27.075 19.125 -1.125
27.075 19.125 0.825
27.075 19.275 0.525
27.075 19.275 0.825
27.075 19.275 1.275
27.075 19.425 -0.075
27.075 19.425 0.825
27.075 19.425 1.725
27.075 19.575 -0.225
27.075 19.575 0.825
27.075 19.575 1.725
27.075 19.725 -0.375
27.075 19.725 0.675
27.075 19.725 0.825
27.075 19.725 1.125
27.075 2.025 0.675
27.075 2.175 -0.075
27.075 2.175 -0.225
27.075 2.175 0.675
27.075 2.175 1.125
27.075 2.325 -0.075
27.075 2.325 -0.225
27.075 2.325 -1.875
27.075 2.325 0.675
27.075 2.325 3.075
27.075 2.625 -0.525
27.075 2.775 -0.675
27.075 20.025 0.675
27.075 20.175 0.375
27.075 20.175 0.675
27.075 22.275 -0.225
27.075 22.425 -0.225
27.075 22.425 1.125
27.075 22.575 0.825
27.075 22.575 2.025
27.075 22.725 0.825
27.075 22.875 1.575
27.075 23.325 0.975
27.225 -0.375 -3.525
27.225 -0.375 -4.575
27.225 -0.525 1.125
27.225 -1.125 1.425
27.225 -1.575 3.075
27.225 -1.725 1.275
27.225 -1.725 3.375
27.225 -1.875 1.425
27.225 -1.875 2.175
27.225 -2.025 0.375
27.225 -2.325 2.325
27.225 0.075 2.175
27.225 0.225 -4.425
27.225 0.975 0.075
27.225 1.275 -0.075
27.225 1.275 -0.525
27.225 1.575 0.675
27.225 1.575 1.725
27.225 15.525 0.075
27.225 15.675 -0.225
27.225 15.675 0.825
27.225 15.975 0.075
27.225 15.975 0.525
27.225 16.125 -0.525
27.225 16.425 0.375
27.225 16.875 -0.225
27.225 16.875 0.675
27.225 17.175 0.075
27.225 17.175 0.525
27.225 17.325 0.225
27.225 17.325 0.525
27.225 17.475 0.225
27.225 17.625 0.675
27.225 17.625 0.975
27.225 17.925 1.575
27.225 18.675 0.375
27.225 18.675 2.625
27.225 18.975 -0.225
27.225 18.975 2.175
27.225 19.125 -0.825
27.225 19.275 1.275
27.225 19.425 -0.225
27.225 19.425 -0.375
27.225 19.425 0.825
27.225 19.425 1.425
27.225 19.575 1.875
27.225 19.725 -0.075
27.225 19.725 0.825
27.225 19.875 -0.225
27.225 19.875 0.675
27.225 19.875 0.825
27.225 2.025 0.675
27.225 2.175 -1.575
27.225 2.175 0.525
27.225 2.175 0.675
27.225 2.175 1.125
27.225 2.325 -0.075
27.225 2.325 0.375
27.225 2.475 1.425
27.225 2.625 1.425
27.225 2.775 -0.525
27.225 20.025 -0.225
27.225 20.175 0.675
27.225 20.175 0.975
27.225 20.325 0.525
27.225 22.725 -0.525
27.225 22.725 2.775
27.225 23.775 1.275
27.375 -0.075 -3.675
27.375 -0.075 -3.975
27.375 -0.375 -0.225
27.375 -0.375 -3.525
27.375 -0.675 -0.375
27.375 -1.125 0.825
27.375 -1.425 0.525
27.375 -1.425 2.025
27.375 -1.425 3.825
27.375 -1.575 0.375
27.375 -1.575 0.975
27.375 -1.575 4.575
27.375 -1.725 1.725
27.375 -2.025 0.375
27.375 -2.025 0.825
27.375 -2.325 4.725
27.375 0.375 -3.525
27.375 0.675 -0.375
27.375 0.675 0.075
27.375 0.825 -0.225
27.375 0.825 0.075
27.375 1.125 0.225
27.375 1.275 -0.525
27.375 1.425 -0.225
27.375 1.575 -0.525
27.375 1.575 0.675
27.375 1.575 0.825
27.375 1.725 -0.225
27.375 1.725 0.675
27.375 1.725 2.925
27.375 1.875 1.725
27.375 15.525 0.825
27.375 15.975 0.225
27.375 16.275 -0.225
27.375 16.725 0.375
27.375 16.725 0.825
27.375 16.875 0.525
27.375 17.025 -0.375
27.375 17.025 0.825
27.375 17.175 -0.075
27.375 17.175 0.075
27.375 17.175 0.225
27.375 17.175 0.375
27.375 17.175 0.525
27.375 17.175 0.675
27.375 17.175 0.825
27.375 17.325 -0.075
27.375 17.325 0.075
27.375 17.475 0.075
27.375 17.475 0.825
27.375 17.625 0.825
27.375 17.925 -1.275
27.375 17.925 0.975
27.375 18.075 0.225
27.375 18.525 2.325
27.375 18.675 0.225
27.375 18.825 0.525
27.375 18.975 0.375
27.375 19.125 -0.075
27.375 19.125 -0.375
27.375 19.125 -0.675
27.375 19.275 0.825
27.375 19.425 0.075
27.375 19.425 0.825
27.375 19.425 1.575
27.375 19.425 1.875
27.375 19.575 -0.075
27.375 19.575 -0.375
27.375 19.575 0.825
27.375 19.725 0.825
27.375 19.875 1.125
27.375 2.025 0.225
27.375 2.175 -0.375
27.375 2.175 -0.825
27.375 2.175 -1.575
27.375 2.175 0.675
27.375 2.325 0.675
27.375 2.325 1.125
27.375 2.475 -0.675
27.375 2.475 0.225
27.375 2.625 -0.825
27.375 2.625 -0.975
27.375 2.925 2.025
27.375 20.025 0.675
27.375 20.025 0.825
27.375 20.175 -0.375
27.375 20.175 0.375
27.375 22.275 1.725
27.375 22.425 2.475
27.375 22.575 1.875
27.375 23.325 0.825
27.375 5.625 0.225
27.525 -0.075 -3.375
27.525 -0.525 -3.225
27.525 -0.675 -0.225
27.525 -0.975 1.275
27.525 -1.275 1.725
27.525 -1.425 0.675
27.525 -1.575 0.225
27.525 -1.575 1.425
27.525 -1.575 2.025
27.525 -1.575 3.075
27.525 -1.875 0.675
27.525 -1.875 0.825
27.525 -1.875 1.275
27.525 -1.875 2.625
27.525 -2.025 1.275
27.525 -2.025 1.575
27.525 -2.025 2.775
27.525 0.825 -0.075
27.525 1.125 -0.075
27.525 1.125 -0.225
27.525 1.275 -0.675
27.525 1.425 0.675
27.525 1.575 -0.375
27.525 1.725 0.675
27.525 1.875 0.675
27.525 15.675 0.375
27.525 15.975 0.375
27.525 16.425 -0.675
27.525 16.575 0.675
27.525 16.725 0.375
27.525 16.725 1.125
27.525 16.875 -0.375
27.525 16.875 0.375
27.525 16.875 0.525
27.525 17.025 -0.075
27.525 17.025 -0.375
27.525 17.025 0.975
27.525 17.175 0.525
27.525 17.175 0.975
27.525 17.325 0.075
27.525 17.325 0.375
27.525 17.325 1.275
27.525 17.475 0.525
27.525 17.475 0.825
27.525 17.625 0.375
27.525 17.775 0.075
27.525 17.925 0.675
27.525 18.375 -0.375
27.525 18.375 -0.525
27.525 18.375 -1.425
27.525 18.375 1.575
27.525 18.525 0.075
27.525 18.525 2.175
27.525 18.975 -0.525
27.525 19.125 -0.225
27.525 19.125 -0.525
27.525 19.125 1.725
27.525 19.275 -0.675
27.525 19.275 0.525
27.525 19.275 0.825
27.525 19.275 1.275
27.525 19.275 4.575
27.525 19.425 0.825
27.525 19.575 -0.225
27.525 19.575 -0.675
27.525 19.575 0.075
27.525 19.575 0.375
27.525 19.575 0.525
27.525 19.575 0.825
27.525 19.575 2.025
27.525 19.725 -0.075
27.525 19.725 -0.225
27.525 19.725 -0.525
27.525 19.725 0.675
27.525 19.875 -0.375
27.525 19.875 -0.525
27.525 19.875 0.825
27.525 2.025 1.425
27.525 2.025 3.675
27.525 2.175 -0.075
27.525 2.175 -0.525
27.525 2.175 0.675
27.525 2.175 1.125
27.525 2.325 -0.375
27.525 2.475 -2.325
27.525 2.775 -1.125
27.525 2.925 -0.375
27.525 2.925 -0.675
27.525 20.025 0.075
27.525 20.175 0.075
27.525 20.325 -0.525
27.525 21.675 -3.975
27.525 22.425 -0.525
27.525 22.725 1.275
27.525 22.875 0.975
27.525 23.475 0.675
27.525 23.475 1.575
27.675 -0.675 -0.675
27.675 -1.275 2.475
27.675 -1.425 1.425
27.675 -1.575 -1.875
27.675 -1.575 0.525
27.675 -1.575 2.175
27.675 -1.725 1.725
27.675 -1.875 3.375
27.675 -2.175 -0.825
27.675 -2.325 0.525
27.675 0.225 -3.675
27.675 0.675 2.625
27.675 0.825 -0.225
27.675 0.825 3.075
27.675 0.975 0.675
27.675 1.425 0.525
27.675 1.425 0.675
27.675 1.575 0.225
27.675 1.575 0.525
27.675 1.875 2.775
27.675 16.125 0.225
27.675 16.425 0.375
27.675 16.575 0.375
27.675 16.575 0.825
27.675 16.725 0.375
27.675 16.725 0.525
27.675 16.725 0.825
27.675 16.875 -0.075
27.675 16.875 0.675
27.675 17.025 0.075
27.675 17.025 0.525
27.675 17.025 0.825
27.675 17.175 0.525
27.675 17.325 0.225
27.675 17.475 0.225
27.675 17.625 -0.225
27.675 17.775 -0.375
27.675 17.925 -0.375
27.675 18.375 0.525
27.675 18.675 -0.525
27.675 18.975 1.575
27.675 19.125 -0.225
27.675 19.125 -0.525
27.675 19.275 0.825
27.675 19.275 1.275
27.675 19.275 2.925
27.675 19.425 0.825
27.675 19.425 1.425
27.675 19.425 1.575
27.675 19.425 1.875
27.675 19.575 3.675
27.675 19.725 -0.225
27.675 19.725 0.075
27.675 19.875 0.825
27.675 19.875 0.975
27.675 2.025 -0.675
27.675 2.025 0.675
27.675 2.025 1.725
27.675 2.625 -0.225
27.675 20.025 -0.075
27.675 20.025 0.825
27.675 20.175 -0.225
27.675 20.175 0.825
27.675 20.325 0.225
27.675 20.325 0.375
27.675 21.525 -0.225
27.675 22.125 -0.525
27.675 22.275 0.825
27.675 22.425 0.525
27.675 22.575 0.375
27.675 22.575 2.025
27.675 22.575 2.175
27.675 22.875 1.425
27.675 23.025 0.975
27.675 23.325 0.825
27.675 23.325 0.975
27.675 23.475 0.825
27.675 23.625 0.675
27.675 5.625 0.675
27.825 -0.675 -0.225
27.825 -1.425 -2.475
27.825 -1.425 1.575
27.825 -1.425 4.875
27.825 -1.575 1.875
27.825 -1.725 -2.475
27.825 -1.725 1.275
27.825 -1.725 3.525
27.825 -1.875 0.375
27.825 -1.875 0.525
27.825 -1.875 1.725
27.825 -2.025 1.125
27.825 -2.325 1.125
27.825 0.375 -3.675
27.825 0.375 -4.125
27.825 0.375 -5.475
27.825 0.525 -3.675
27.825 0.675 -0.075
27.825 0.675 -4.275
27.825 0.675 0.075
27.825 1.125 0.975
27.825 1.275 -0.525
27.825 1.575 0.375
27.825 1.725 -0.675
27.825 1.725 -0.825
27.825 1.725 0.675
27.825 1.875 1.725
27.825 16.425 -0.375
27.825 16.425 1.125
27.825 16.725 0.975
27.825 16.875 0.375
27.825 16.875 0.975
27.825 17.025 0.225
27.825 17.175 -0.675
27.825 17.175 0.525
27.825 17.175 0.675
27.825 17.175 0.975
27.825 17.325 0.975
27.825 17.625 -0.525
27.825 17.625 0.675
27.825 17.775 -0.075
27.825 17.775 0.675
27.825 17.925 0.675
27.825 18.525 0.225
27.825 18.975 -0.675
27.825 19.125 0.075
27.825 19.275 -0.225
27.825 19.275 0.825
27.825 19.425 0.825
27.825 19.425 1.575
27.825 19.575 -0.075
27.825 19.575 -0.375
27.825 19.575 0.825
27.825 19.725 0.825
27.825 19.875 2.925
27.825 2.025 0.675
27.825 2.025 1.275
27.825 2.175 -0.075
27.825 2.175 -0.525
27.825 2.175 0.375
27.825 2.175 0.675
27.825 2.175 1.125
27.825 2.625 -0.525
27.825 2.775 -0.675
27.825 2.775 -0.825
27.825 2.775 2.325
27.825 20.025 -0.375
27.825 20.025 0.075
27.825 20.025 0.675
27.825 20.325 -0.225
27.825 21.225 0.075
27.825 22.425 -0.375
27.825 22.425 0.225
27.825 22.425 0.375
27.825 22.575 0.375
27.825 22.725 0.225
27.825 23.025 1.425
27.825 3.075 -0.675
27.825 3.525 -0.075
27.825 7.575 -0.225
27.975 -0.075 -3.525
27.975 -0.225 0.675
27.975 -0.375 0.525
27.975 -1.275 1.575
27.975 -1.425 1.725
27.975 -1.575 0.975
27.975 -1.725 0.675
27.975 -1.725 0.825
27.975 -1.875 0.825
27.975 -1.875 0.975
27.975 -1.875 1.425
27.975 -2.175 0.675
27.975 -2.175 0.825
27.975 -2.775 2.775
27.975 0.225 -3.525
27.975 0.525 -0.675
27.975 1.125 -0.075
27.975 1.125 -0.525
27.975 1.275 -0.375
27.975 1.275 2.175
27.975 1.425 -0.075
27.975 1.725 -0.375
27.975 1.725 -1.125
27.975 1.725 -1.275
27.975 1.725 0.675
27.975 1.875 -0.225
27.975 16.125 1.275
27.975 16.275 0.525
27.975 16.575 0.225
27.975 16.575 0.525
27.975 16.575 0.675
27.975 16.725 -0.225
27.975 16.725 0.675
27.975 16.725 0.825
27.975 16.875 -0.375
27.975 16.875 0.525
27.975 16.875 0.675
27.975 16.875 1.125
27.975 17.025 -0.225
27.975 17.025 0.225
27.975 17.025 0.375
27.975 17.175 0.525
27.975 17.325 0.375
27.975 17.325 0.525
27.975 17.475 -1.425
27.975 17.625 -0.225
27.975 17.925 -0.225
27.975 17.925 -0.675
27.975 18.075 0.075
27.975 18.375 0.675
27.975 18.375 2.625
27.975 18.825 -0.525
27.975 18.825 -2.175
27.975 18.825 0.525
27.975 18.975 -0.525
27.975 18.975 -0.675
27.975 18.975 -0.975
27.975 19.275 -0.075
27.975 19.275 -0.375
27.975 19.275 0.075
27.975 19.275 0.525
27.975 19.275 0.825
27.975 19.275 1.275
27.975 19.275 2.775
27.975 19.425 0.225
27.975 19.425 0.825
27.975 19.425 1.275
27.975 19.425 1.575
27.975 19.575 0.075
27.975 19.575 0.825
27.975 19.575 1.875
27.975 19.725 0.075
27.975 19.725 0.825
27.975 19.725 1.875
27.975 19.875 0.675
27.975 2.025 -0.675
27.975 2.025 -1.275
27.975 2.025 0.675
27.975 2.025 3.225
27.975 2.175 -0.075
27.975 2.175 0.675
27.975 2.325 -0.825
27.975 2.775 -0.525
27.975 2.925 -0.675
27.975 20.175 -0.825
27.975 20.475 0.225
27.975 22.425 -0.075
27.975 22.425 -0.525
27.975 22.425 0.975
27.975 22.425 1.275
27.975 22.425 1.425
27.975 22.725 0.975
27.975 22.875 1.425
27.975 23.625 0.975
27.975 23.625 1.275
27.975 5.475 0.675
28.125 -0.675 -4.275
28.125 -0.975 -0.225
28.125 -1.575 0.975
28.125 -1.575 1.275
28.125 -1.575 2.175
28.125 -1.575 2.475
28.125 -1.575 3.375
28.125 -1.725 0.675
28.125 -1.725 1.725
28.125 -1.875 2.325
28.125 -2.025 0.675
28.125 -2.175 -1.725
28.125 -2.625 3.675
28.125 0.225 0.675
28.125 0.375 -3.975
28.125 0.825 -0.075
28.125 0.975 -0.525
28.125 1.125 -0.375
28.125 1.125 0.075
28.125 1.575 -1.125
28.125 1.875 -0.225
28.125 1.875 0.675
28.125 1.875 1.725
28.125 16.125 0.975
28.125 16.275 -0.225
28.125 16.425 0.075
28.125 16.425 0.375
28.125 16.575 0.375
28.125 16.575 0.525
28.125 16.575 1.425
28.125 16.575 1.575
28.125 16.725 0.075
28.125 16.725 0.225
28.125 16.725 0.825
28.125 16.875 0.675
28.125 17.025 -0.375
28.125 17.025 0.225
28.125 17.025 0.825
28.125 17.175 -0.375
28.125 17.775 0.075
28.125 17.925 0.225
28.125 17.925 0.375
28.125 18.225 0.525
28.125 18.525 -0.825
28.125 18.825 2.475
28.125 18.975 0.075
28.125 18.975 2.325
28.125 19.125 -0.075
28.125 19.125 -0.225
28.125 19.125 0.075
28.125 19.125 0.375
28.125 19.275 -0.075
28.125 19.275 0.825
28.125 19.275 3.675
28.125 19.425 -0.075
28.125 19.425 0.825
28.125 19.425 1.275
28.125 19.425 1.575
28.125 19.575 -0.375
28.125 19.575 0.825
28.125 19.575 1.725
28.125 19.575 1.875
28.125 19.575 2.175
28.125 19.725 0.075
28.125 19.725 0.825
28.125 19.875 -0.375
28.125 19.875 0.375
28.125 19.875 0.825
28.125 2.025 1.125
28.125 2.175 -0.075
28.125 2.175 -0.375
28.125 2.175 -0.525
28.125 2.175 -0.825
28.125 2.175 -1.425
28.125 2.625 0.825
28.125 2.775 -0.075
28.125 2.775 -0.525
28.125 2.925 -0.675
28.125 20.025 -1.125
28.125 20.175 0.975
28.125 20.175 2.775
28.125 20.325 -0.225
28.125 20.475 0.375
28.125 22.275 0.825
28.125 22.275 1.125
28.125 22.425 -0.075
28.125 22.425 0.825
28.125 22.575 0.525
28.125 22.575 1.425
28.125 22.725 1.275
28.125 23.175 0.525
28.125 3.825 2.925
28.125 5.325 0.525
28.275 -0.675 0.375
28.275 -0.975 -0.975
28.275 -1.125 -0.225
28.275 -1.425 1.275
28.275 -1.575 1.725
28.275 -1.725 1.725
28.275 -1.875 -2.175
28.275 -2.325 0.825
28.275 0.825 -0.075
28.275 0.975 -0.525
28.275 1.125 0.525
28.275 1.275 0.525
28.275 1.275 0.825
28.275 1.425 -0.375
28.275 1.425 0.225
28.275 1.575 -0.225
28.275 1.575 -0.375
28.275 1.725 -0.075
28.275 15.975 3.075
28.275 16.425 0.375
28.275 16.425 1.725
28.275 16.575 0.225
28.275 16.575 0.375
28.275 16.725 -0.075
28.275 16.725 0.075
28.275 16.725 0.225
28.275 16.875 -0.225
28.275 16.875 0.075
28.275 16.875 0.975
28.275 17.025 -0.225
28.275 17.025 -0.675
28.275 17.025 0.075
28.275 17.025 0.675
28.275 17.925 -0.225
28.275 18.075 -0.075
28.275 18.075 0.375
28.275 18.225 -1.275
28.275 18.525 0.375
28.275 18.675 -0.375
28.275 18.675 0.675
28.275 18.825 1.425
28.275 18.975 -0.075
28.275 18.975 0.225
28.275 19.125 -0.075
28.275 19.125 -0.225
28.275 19.125 -0.375
28.275 19.125 0.375
28.275 19.275 -0.525
28.275 19.275 -1.875
28.275 19.425 1.275
28.275 19.425 1.425
28.275 19.425 1.575
28.275 19.575 -0.825
28.275 19.575 0.825
28.275 19.575 1.725
28.275 19.725 -0.225
28.275 19.725 -0.375
28.275 19.725 -0.525
28.275 19.725 0.225
28.275 19.725 0.825
28.275 19.875 0.075
28.275 19.875 0.225
28.275 2.025 -0.375
28.275 2.025 0.375
28.275 2.025 0.675
28.275 2.175 -0.375
28.275 2.475 -0.825
28.275 2.775 -0.375
28.275 2.775 -0.675
28.275 20.025 0.825
28.275 20.025 0.975
28.275 20.175 0.975
28.275 20.475 0.675
28.275 22.425 0.675
28.275 22.725 1.875
28.275 22.875 1.725
28.275 23.175 0.975
28.275 23.475 0.975
28.275 5.625 0.525
28.275 6.525 1.275
28.425 -0.675 1.575
28.425 -0.975 -0.375
28.425 -1.575 0.825
28.425 -1.575 1.725
28.425 -1.725 -2.175
28.425 -1.725 0.975
28.425 -1.725 1.575
28.425 -1.725 1.725
28.425 -1.725 1.875
28.425 -1.875 -0.225
28.425 -1.875 1.875
28.425 -2.025 -1.125
28.425 -2.025 1.275
28.425 -2.025 1.725
28.425 -2.175 1.275
28.425 -2.325 -0.825
28.425 -2.325 1.575
28.425 -2.625 5.025
28.425 0.525 -3.825
28.425 0.975 -0.075
28.425 0.975 0.825
28.425 1.125 -0.525
28.425 1.125 0.075
28.425 1.125 0.525
28.425 1.125 0.675
28.425 1.425 0.525
28.425 1.575 2.775
28.425 1.875 -0.375
28.425 15.975 0.225
28.425 16.425 0.825
28.425 16.725 0.675
28.425 16.725 0.825
28.425 16.875 -0.075
28.425 17.025 -0.075
28.425 17.025 0.225
28.425 17.025 0.825
28.425 17.325 0.375
28.425 17.925 -0.225
28.425 17.925 -0.375
28.425 18.075 -1.125
28.425 18.375 -0.675
28.425 18.375 0.075
28.425 18.525 0.375
28.425 18.675 -0.525
28.425 18.825 -0.525
28.425 18.825 -0.675
28.425 18.825 2.025
28.425 18.975 -0.375
28.425 19.125 -0.075
28.425 19.125 -0.225
28.425 19.125 -0.375
28.425 19.125 -1.425
28.425 19.125 0.675
28.425 19.125 0.975
28.425 19.275 3.825
28.425 19.575 -0.075
28.425 19.575 -0.675
28.425 19.575 -0.825
28.425 19.575 0.825
28.425 19.575 1.575
28.425 19.725 -0.075
28.425 19.725 -0.375
28.425 19.725 0.375
28.425 19.725 0.825
28.425 19.725 1.725
28.425 19.725 2.325
28.425 19.725 4.275
28.425 19.875 -0.225
28.425 19.875 -0.975
28.425 19.875 0.675
28.425 19.875 3.375
28.425 2.025 -0.525
28.425 2.025 0.675
28.425 2.025 1.875
28.425 2.175 -1.575
28.425 2.175 0.675
28.425 2.475 0.375
28.425 2.775 -0.375
28.425 20.025 0.825
28.425 20.175 -0.075
28.425 20.175 0.975
28.425 22.125 1.425
28.425 23.025 0.975
28.425 23.175 1.125
28.425 23.325 0.975
28.425 3.075 -0.825
28.425 3.225 -0.225
28.425 4.575 2.025
28.425 5.025 1.125
28.425 5.175 0.525
28.425 5.625 1.575
28.425 6.675 0.675
28.575 -1.125 0.225
28.575 -1.275 0.225
28.575 -1.725 1.275
28.575 -2.325 1.725
28.575 -2.475 0.075
28.575 0.525 -3.825
28.575 0.525 4.125
28.575 0.975 -0.225
28.575 1.125 3.075
28.575 1.425 0.525
28.575 1.575 -0.525
28.575 1.575 0.525
28.575 1.575 0.675
28.575 1.725 -0.375
28.575 1.875 1.125
28.575 1.875 1.425
28.575 16.425 0.075
28.575 16.575 0.375
28.575 16.725 -0.075
28.575 16.725 0.375
28.575 16.725 0.675
28.575 16.725 1.425
28.575 16.875 -0.075
28.575 16.875 1.425
28.575 17.175 0.075
28.575 17.325 0.075
28.575 17.775 1.275
28.575 17.925 -0.825
28.575 17.925 -1.125
28.575 18.225 -0.225
28.575 18.225 -0.675
28.575 18.375 -0.075
28.575 18.375 -0.225
28.575 18.375 -0.375
28.575 18.375 -0.825
28.575 18.375 -1.725
28.575 18.525 -0.075
28.575 18.525 0.525
28.575 18.525 1.875
28.575 18.825 -0.525
28.575 18.975 2.925
28.575 19.275 -0.075
28.575 19.275 -0.225
28.575 19.275 -0.525
28.575 19.425 0.525
28.575 19.425 0.825
28.575 19.425 1.125
28.575 19.425 1.275
28.575 19.575 -0.525
28.575 19.575 0.225
28.575 19.725 -0.375
28.575 19.725 0.825
28.575 19.725 1.275
28.575 19.875 -0.225
28.575 19.875 0.675
28.575 2.175 -0.375
28.575 2.625 0.075
28.575 2.775 -0.375
28.575 20.025 0.675
28.575 20.025 0.825
28.575 20.175 0.975
28.575 20.325 0.675
28.575 20.325 2.625
28.575 20.625 0.675
28.575 22.125 0.075
28.575 22.275 0.075
28.575 22.275 1.425
28.575 22.425 0.375
28.575 22.425 0.975
28.575 22.875 0.975
28.575 23.625 1.125
28.575 3.075 -0.525
28.575 3.225 -0.225
28.575 3.225 -0.675
28.575 3.375 -0.375
28.575 3.975 0.525
28.575 4.125 0.525
28.575 4.425 0.375
28.575 4.725 2.475
28.725 -1.425 -1.575
28.725 -1.425 1.125
28.725 -1.425 2.625
28.725 -1.575 1.275
28.725 -1.575 1.575
28.725 -1.725 1.275
28.725 -1.725 1.575
28.725 -1.875 1.125
28.725 -1.875 1.425
28.725 -2.025 0.225
28.725 -2.175 0.525
28.725 0.375 -0.375
28.725 0.525 -1.725
28.725 0.675 -2.025
28.725 0.825 0.525
28.725 0.975 -0.825
28.725 1.125 -0.375
28.725 1.425 2.925
28.725 1.575 0.675
28.725 1.725 0.675
28.725 1.725 1.725
28.725 1.875 -0.225
28.725 1.875 0.075
28.725 1.875 1.125
28.725 13.575 0.525
28.725 16.425 0.075
28.725 16.575 0.075
28.725 16.875 0.075
28.725 17.925 -0.525
28.725 17.925 1.575
28.725 18.075 -0.375
28.725 18.075 -1.125
28.725 18.225 -0.225
28.725 18.525 -0.375
28.725 18.525 -1.275
28.725 18.525 0.075
28.725 18.525 0.525
28.725 18.675 -0.525
28.725 18.825 -0.375
28.725 18.825 0.525
28.725 18.975 0.225
28.725 19.275 -0.225
28.725 19.275 -0.675
28.725 19.425 0.075
28.725 19.425 1.275
28.725 19.575 -0.225
28.725 19.575 0.075
28.725 19.575 0.825
28.725 19.725 0.225
28.725 19.725 0.825
28.725 19.875 -0.375
28.725 19.875 0.675
28.725 2.025 -0.075
28.725 2.175 2.175
28.725 2.775 -0.225
28.725 20.025 -0.375
28.725 20.175 0.825
28.725 20.325 0.975
28.725 20.475 0.975
28.725 20.475 1.125
28.725 20.625 -0.525
28.725 21.825 -2.025
28.725 22.125 0.825
28.725 22.275 0.825
28.725 22.425 0.525
28.725 22.575 1.275
28.725 22.875 1.425
28.725 23.175 1.125
28.725 3.075 -0.525
28.725 3.225 -0.525
28.725 3.525 0.225
28.725 3.675 0.525
28.725 3.975 -0.225
28.725 3.975 0.225
28.725 3.975 2.175
28.725 4.425 0.825
28.725 4.875 -0.825
28.725 5.175 2.325
28.725 5.475 0.225
28.725 5.475 1.425
28.875 -0.075 -4.275
28.875 -1.275 -1.575
28.875 -1.425 1.425
28.875 -1.575 0.675
28.875 -2.175 1.125
28.875 -2.475 0.975
28.875 0.375 -0.375
28.875 0.525 4.425
28.875 0.975 -0.375
28.875 1.125 0.075
28.875 1.125 0.675
28.875 1.575 -0.975
28.875 1.575 0.075
28.875 1.575 0.675
28.875 1.725 -0.375
28.875 1.725 -0.525
28.875 1.725 0.675
28.875 1.725 1.725
28.875 1.725 2.925
28.875 1.875 0.675
28.875 1.875 0.975
28.875 1.875 1.125
28.875 1.875 1.425
28.875 15.375 -0.675
28.875 16.425 0.375
28.875 16.725 -0.075
28.875 16.725 0.225
28.875 16.875 0.825
28.875 18.075 -0.375
28.875 18.075 -0.525
28.875 18.075 -0.975
28.875 18.225 0.375
28.875 18.225 0.675
28.875 18.375 -0.375
28.875 18.375 0.075
28.875 18.525 -0.075
28.875 18.525 -0.375
28.875 18.525 -0.525
28.875 18.675 0.075
28.875 18.675 0.225
28.875 18.825 -0.375
28.875 18.825 -0.825
28.875 18.825 1.125
28.875 18.975 2.325
28.875 18.975 2.625
28.875 19.125 -0.075
28.875 19.125 -0.225
28.875 19.125 0.375
28.875 19.125 1.275
28.875 19.275 -0.075
28.875 19.275 -0.375
28.875 19.275 2.175
28.875 19.575 0.075
28.875 19.575 0.825
28.875 19.575 1.275
28.875 19.725 0.825
28.875 19.875 -0.075
28.875 19.875 -0.225
28.875 19.875 0.825
